ply
format ascii 1.0
element vertex 1355
property float x
property float y
property float z
property uchar red
property uchar green
property uchar blue
end_header
886.945 588.821 1266.405 37 37 35
879.968 581.207 1250.029 37 37 35
896.047 588.821 1266.405 37 37 35
901.582 589.464 1267.789 37 37 35
902.194 586.899 1262.271 38 38 38
863.891 535.079 1150.820 11 10 11
-1034.298 539.215 1150.820 102 79 51
-1030.162 539.215 1150.820 102 79 51
-1026.027 539.215 1150.820 101 78 50
-1021.891 539.215 1150.820 102 79 51
-1017.756 539.215 1150.820 103 80 52
-1013.620 539.215 1150.820 101 78 48
-1009.485 539.215 1150.820 99 77 47
-1005.349 539.215 1150.820 96 76 45
-1001.214 539.215 1150.820 97 78 47
-997.078 539.215 1150.820 96 77 46
-992.943 539.215 1150.820 97 78 47
-988.807 539.215 1150.820 101 82 51
-984.672 539.215 1150.820 99 80 49
-980.537 539.215 1150.820 99 80 49
-976.401 539.215 1150.820 98 79 48
-972.266 539.215 1150.820 97 78 47
-968.130 539.215 1150.820 96 77 46
-975.609 545.711 1164.685 96 77 46
-959.859 539.215 1150.820 96 77 46
-955.724 539.215 1150.820 94 75 44
-951.588 539.215 1150.820 96 77 46
-947.453 539.215 1150.820 95 76 45
-943.317 539.215 1150.820 94 75 44
-939.182 539.215 1150.820 94 75 44
-935.046 539.215 1150.820 96 77 44
-930.911 539.215 1150.820 95 76 43
-926.775 539.215 1150.820 96 77 48
-922.640 539.215 1150.820 92 72 45
-918.504 539.215 1150.820 90 70 45
-914.369 539.215 1150.820 92 75 43
-910.233 539.215 1150.820 92 75 43
-906.098 539.215 1150.820 92 75 42
-901.962 539.215 1150.820 94 77 44
-897.827 539.215 1150.820 95 78 44
-893.691 539.215 1150.820 101 79 47
-889.556 539.215 1150.820 102 80 48
-885.420 539.215 1150.820 103 81 49
-881.285 539.215 1150.820 106 84 52
-877.149 539.215 1150.820 106 84 52
-873.014 539.215 1150.820 106 84 53
-868.878 539.215 1150.820 103 83 52
-864.743 539.215 1150.820 103 84 52
-860.607 539.215 1150.820 103 84 53
-856.472 539.215 1150.820 107 88 57
-852.336 539.215 1150.820 103 84 55
-848.201 539.215 1150.820 101 82 53
-844.065 539.215 1150.820 103 84 55
-839.930 539.215 1150.820 107 88 59
-831.659 539.215 1150.820 106 90 59
-827.523 539.215 1150.820 94 84 49
-823.388 539.215 1150.820 35 28 3
-819.253 539.215 1150.820 32 27 9
-815.117 539.215 1150.820 25 25 9
-810.982 539.215 1150.820 22 22 8
-806.846 539.215 1150.820 21 20 10
-802.711 539.215 1150.820 19 18 10
-798.575 539.215 1150.820 17 16 10
-794.440 539.215 1150.820 18 18 6
-790.304 539.215 1150.820 18 18 6
-786.169 539.215 1150.820 22 22 10
-782.033 539.215 1150.820 22 22 10
-777.898 539.215 1150.820 19 20 7
-773.762 539.215 1150.820 17 19 6
-769.627 539.215 1150.820 18 19 9
-765.491 539.215 1150.820 17 18 11
-761.356 539.215 1150.820 20 20 16
-757.220 539.215 1150.820 25 24 26
-753.085 539.215 1150.820 25 25 25
-748.949 539.215 1150.820 23 23 20
-744.814 539.215 1150.820 24 25 18
-740.678 539.215 1150.820 16 17 10
-736.543 539.215 1150.820 11 14 7
-732.407 539.215 1150.820 13 16 10
-728.272 539.215 1150.820 11 13 11
-724.136 539.215 1150.820 16 18 18
-720.001 539.215 1150.820 24 23 25
-715.865 539.215 1150.820 22 22 22
-711.730 539.215 1150.820 24 24 22
-707.594 539.215 1150.820 22 23 16
-703.459 539.215 1150.820 16 17 10
-699.323 539.215 1150.820 13 14 10
-695.188 539.215 1150.820 10 11 8
-691.052 539.215 1150.820 13 13 11
-686.917 539.215 1150.820 16 16 14
-682.781 539.215 1150.820 19 19 15
-678.646 539.215 1150.820 22 21 15
-670.375 539.215 1150.820 20 19 13
-666.239 539.215 1150.820 21 20 14
-662.104 539.215 1150.820 19 18 12
-657.969 539.215 1150.820 20 19 13
-653.833 539.215 1150.820 21 20 14
-649.698 539.215 1150.820 21 20 14
-645.562 539.215 1150.820 21 20 14
-641.427 539.215 1150.820 19 20 13
-637.291 539.215 1150.820 20 21 14
-633.156 539.215 1150.820 20 21 14
-629.020 539.215 1150.820 20 21 14
-624.885 539.215 1150.820 17 18 11
-620.749 539.215 1150.820 16 17 10
-616.614 539.215 1150.820 19 20 13
-612.478 539.215 1150.820 19 20 13
-1155.595 1067.836 2279.031 144 103 50
-1125.298 1047.261 2235.119 93 52 11
-1108.721 1039.251 2218.024 74 34 2
-471.872 539.215 1150.820 140 98 54
-451.194 539.215 1150.820 143 99 56
-447.059 539.215 1150.820 147 103 60
-442.923 539.215 1150.820 145 101 58
-418.110 539.215 1150.820 138 101 58
-413.975 539.215 1150.820 140 103 60
-409.839 539.215 1150.820 142 105 62
-405.704 539.215 1150.820 139 102 58
-401.568 539.215 1150.820 137 101 60
-397.433 539.215 1150.820 137 102 60
-393.297 539.215 1150.820 133 102 59
-389.162 539.215 1150.820 133 104 60
-385.026 539.215 1150.820 134 105 61
-380.891 539.215 1150.820 131 102 59
-376.755 539.215 1150.820 131 98 57
-372.620 539.215 1150.820 132 96 56
-368.484 539.215 1150.820 136 99 59
-364.349 539.215 1150.820 139 103 63
-360.213 539.215 1150.820 137 102 62
-356.078 539.215 1150.820 137 107 65
-351.942 539.215 1150.820 131 103 61
-347.807 539.215 1150.820 127 96 63
-343.671 539.215 1150.820 122 91 58
-339.536 539.215 1150.820 121 90 57
-335.401 539.215 1150.820 122 91 58
-331.265 539.215 1150.820 122 90 57
-327.130 539.215 1150.820 129 93 56
-322.994 539.215 1150.820 141 96 50
-318.859 539.215 1150.820 149 105 56
-314.723 539.215 1150.820 134 95 48
-310.588 539.215 1150.820 124 87 48
-306.452 539.215 1150.820 113 84 52
-302.317 539.215 1150.820 101 80 60
-298.181 539.215 1150.820 122 110 98
-294.046 539.215 1150.820 133 121 116
-289.910 539.215 1150.820 129 124 114
-285.775 539.215 1150.820 128 125 113
-281.639 539.215 1150.820 134 123 111
-277.504 539.215 1150.820 141 122 111
-273.368 539.215 1150.820 133 99 71
-269.233 539.215 1150.820 150 107 60
-265.097 539.215 1150.820 148 102 52
-260.962 539.215 1150.820 145 101 56
-256.826 539.215 1150.820 135 101 52
-252.691 539.215 1150.820 110 72 33
-248.555 539.215 1150.820 124 91 66
-244.420 539.215 1150.820 137 115 99
-240.284 539.215 1150.820 187 175 166
-236.149 539.215 1150.820 184 179 172
-232.013 539.215 1150.820 187 182 177
-227.878 539.215 1150.820 183 179 177
-223.742 539.215 1150.820 184 182 181
-219.607 539.215 1150.820 183 182 176
-215.471 539.215 1150.820 183 182 176
-211.336 539.215 1150.820 184 183 177
-207.200 539.215 1150.820 184 183 177
-203.065 539.215 1150.820 184 183 177
-198.929 539.215 1150.820 182 181 175
-194.794 539.215 1150.820 183 182 176
-190.658 539.215 1150.820 185 184 178
-186.523 539.215 1150.820 183 182 176
-182.387 539.215 1150.820 184 183 177
-178.252 539.215 1150.820 184 183 177
-174.117 539.215 1150.820 183 182 176
-169.981 539.215 1150.820 183 182 176
-165.846 539.215 1150.820 184 183 177
-161.710 539.215 1150.820 184 183 177
-157.575 539.215 1150.820 183 182 176
-153.439 539.215 1150.820 182 181 175
-149.304 539.215 1150.820 183 182 176
-145.168 539.215 1150.820 183 182 176
-141.033 539.215 1150.820 183 182 176
-136.897 539.215 1150.820 184 183 177
-132.762 539.215 1150.820 185 184 178
-128.626 539.215 1150.820 184 183 177
-124.491 539.215 1150.820 184 183 177
-120.355 539.215 1150.820 184 183 177
-116.220 539.215 1150.820 184 183 177
-112.084 539.215 1150.820 183 182 176
-107.949 539.215 1150.820 183 182 176
-103.813 539.215 1150.820 184 183 177
-99.678 539.215 1150.820 184 183 177
-95.542 539.215 1150.820 184 183 177
-91.407 539.215 1150.820 184 183 177
-87.271 539.215 1150.820 184 183 177
-83.136 539.215 1150.820 183 182 176
-79.000 539.215 1150.820 182 181 175
-74.865 539.215 1150.820 183 182 176
-70.729 539.215 1150.820 185 184 178
-66.594 539.215 1150.820 184 183 177
-62.458 539.215 1150.820 184 183 177
-58.323 539.215 1150.820 184 183 177
-54.187 539.215 1150.820 184 183 177
-50.052 539.215 1150.820 183 182 176
-45.916 539.215 1150.820 183 182 176
-41.781 539.215 1150.820 183 182 176
-37.645 539.215 1150.820 183 182 176
-33.510 539.215 1150.820 183 182 176
-29.374 539.215 1150.820 184 183 177
-25.239 539.215 1150.820 184 183 177
-21.103 539.215 1150.820 183 184 177
-16.968 539.215 1150.820 183 184 177
-12.833 539.215 1150.820 184 185 178
-8.697 539.215 1150.820 183 184 177
-4.562 539.215 1150.820 183 183 176
-0.426 539.215 1150.820 182 181 175
3.709 539.215 1150.820 184 181 176
7.845 539.215 1150.820 188 182 178
11.980 539.215 1150.820 179 185 174
16.116 539.215 1150.820 179 186 175
20.251 539.215 1150.820 178 182 172
24.387 539.215 1150.820 180 182 174
28.522 539.215 1150.820 183 184 176
32.658 539.215 1150.820 182 181 178
36.793 539.215 1150.820 191 184 184
40.929 539.215 1150.820 187 179 180
45.064 539.215 1150.820 200 188 191
49.200 539.215 1150.820 198 190 199
53.335 539.215 1150.820 194 186 195
57.471 539.215 1150.820 183 175 185
86.091 594.020 1267.789 40 34 37
82.284 539.215 1150.820 35 29 32
86.419 539.215 1150.820 28 25 31
94.690 539.215 1150.820 39 36 41
98.826 539.215 1150.820 36 33 38
102.961 539.215 1150.820 30 27 29
117.468 591.435 1262.271 22 20 21
122.004 591.435 1262.271 20 21 21
125.584 586.964 1252.729 14 17 17
135.025 588.871 1256.800 13 15 15
150.531 596.628 1273.355 14 14 14
188.700 685.408 1462.833 31 31 31
193.712 684.544 1460.991 41 41 41
194.792 670.195 1430.366 40 39 33
198.464 665.273 1419.861 39 38 32
204.066 666.906 1423.346 27 26 20
209.180 666.906 1423.346 29 28 22
215.352 670.195 1430.366 41 42 35
219.679 667.725 1425.094 45 46 39
222.342 660.423 1409.510 60 61 54
226.581 658.025 1404.391 32 33 26
232.190 659.622 1407.799 23 23 21
238.989 664.460 1418.125 23 23 21
210.484 539.215 1150.820 22 22 19
214.619 539.215 1150.820 21 21 17
218.755 539.215 1150.820 26 27 22
222.890 539.215 1150.820 24 25 20
227.026 539.215 1150.820 22 22 16
231.161 539.215 1150.820 23 22 16
235.297 539.215 1150.820 30 29 23
239.432 539.215 1150.820 41 40 34
293.194 539.215 1150.820 19 19 17
297.329 539.215 1150.820 17 17 15
301.465 539.215 1150.820 17 17 15
305.600 539.215 1150.820 17 17 15
440.467 684.544 1460.991 17 18 11
479.210 695.049 1483.410 24 25 18
484.540 695.049 1483.410 29 30 23
489.245 694.161 1481.515 29 30 23
492.682 691.512 1475.861 24 25 18
497.352 690.633 1473.986 23 24 17
495.100 680.261 1451.848 24 25 18
506.658 688.883 1470.249 24 25 18
518.539 690.633 1473.986 24 25 18
525.171 692.393 1477.741 23 24 17
529.806 691.512 1475.861 21 22 15
536.475 693.276 1479.626 23 24 17
544.332 689.757 1472.115 20 21 14
547.537 687.141 1466.532 20 21 14
555.617 690.633 1473.986 20 21 14
564.775 688.883 1470.249 20 21 14
571.507 690.633 1473.986 19 20 13
576.072 689.757 1472.115 21 23 14
588.894 692.393 1477.741 21 22 13
587.469 684.544 1460.991 21 22 15
589.748 681.113 1453.667 23 23 18
602.522 689.757 1472.115 20 20 18
610.135 692.393 1477.741 20 20 18
614.663 691.512 1475.861 28 28 26
619.178 690.633 1473.986 41 41 39
622.892 688.883 1470.249 45 45 45
621.091 681.113 1453.667 31 31 31
627.100 681.968 1455.491 17 17 17
637.934 688.011 1468.388 14 14 14
645.662 690.633 1473.986 14 15 8
650.133 689.757 1472.115 14 15 8
635.269 668.547 1426.847 16 17 10
662.772 665.273 1419.861 11 12 9
665.431 662.839 1414.667 10 13 6
668.070 660.423 1409.510 10 13 6
673.954 661.227 1411.225 11 14 7
688.236 670.195 1430.366 11 14 7
711.807 688.011 1468.388 13 14 4
622.996 593.372 1266.405 13 13 9
707.826 664.460 1418.125 17 18 11
710.317 662.032 1412.943 20 21 14
679.326 615.547 1313.733 22 23 16
651.856 582.560 1243.330 20 21 14
654.920 581.314 1240.670 21 20 12
667.046 576.382 1230.145 18 17 9
673.610 578.222 1234.071 19 18 10
687.553 586.330 1251.377 20 19 11
681.754 577.607 1232.759 19 18 10
695.047 585.068 1248.683 22 21 13
695.044 577.607 1232.759 21 21 9
695.777 574.554 1226.244 20 20 8
704.653 578.222 1234.071 24 24 12
708.334 577.607 1232.759 22 26 9
713.522 578.222 1234.071 26 28 11
835.237 668.547 1426.847 30 25 11
740.213 588.871 1256.800 33 23 11
762.853 595.974 1271.959 32 27 13
764.073 593.372 1266.405 30 28 13
745.825 575.772 1228.842 34 29 11
747.076 573.342 1223.657 34 29 11
757.063 577.607 1232.759 33 28 10
768.022 582.560 1243.330 33 28 10
764.298 576.382 1230.145 32 26 12
767.905 575.772 1228.842 34 28 14
804.873 596.628 1273.355 35 29 15
808.561 595.974 1271.959 32 27 9
812.241 595.321 1270.566 34 29 13
813.244 592.724 1265.024 31 26 11
796.086 576.994 1231.451 27 21 9
813.465 586.330 1251.377 26 20 10
819.730 587.598 1254.083 25 20 10
823.347 586.964 1252.729 23 18 8
826.064 585.699 1250.029 22 17 7
830.556 585.699 1250.029 24 19 9
827.911 580.693 1239.345 25 24 18
840.446 586.330 1251.377 27 26 20
852.298 591.435 1262.271 29 28 22
853.121 588.871 1256.800 31 30 24
865.136 594.020 1267.789 32 30 29
870.643 594.670 1269.176 32 30 29
874.247 594.020 1267.789 32 30 29
881.694 595.974 1271.959 36 34 33
880.472 592.079 1263.646 37 35 34
884.050 591.435 1262.271 41 34 35
868.735 578.222 1234.071 41 34 35
893.122 591.435 1262.271 43 36 37
888.952 585.699 1250.029 43 36 37
895.374 586.964 1252.729 36 36 36
896.005 584.439 1247.340 36 36 36
-1034.298 543.350 1150.820 98 79 48
-1030.162 543.350 1150.820 98 79 48
-1026.027 543.350 1150.820 100 81 50
-1021.891 543.350 1150.820 97 78 47
-1017.756 543.350 1150.820 96 77 46
-1013.620 543.350 1150.820 98 79 48
-1009.485 543.350 1150.820 96 77 46
-1005.349 543.350 1150.820 96 77 46
-1001.214 543.350 1150.820 97 78 47
-997.078 543.350 1150.820 96 77 46
-992.943 543.350 1150.820 97 78 47
-988.807 543.350 1150.820 98 79 48
-984.672 543.350 1150.820 98 79 48
-980.537 543.350 1150.820 97 78 47
-976.401 543.350 1150.820 96 77 46
-972.266 543.350 1150.820 94 75 44
-968.130 543.350 1150.820 93 74 43
-963.995 543.350 1150.820 93 74 43
-959.859 543.350 1150.820 95 76 45
-955.724 543.350 1150.820 93 74 43
-951.588 543.350 1150.820 95 76 45
-947.453 543.350 1150.820 94 75 44
-943.317 543.350 1150.820 94 75 44
-939.182 543.350 1150.820 94 75 43
-935.046 543.350 1150.820 97 79 45
-930.911 543.350 1150.820 98 79 44
-926.775 543.350 1150.820 100 82 47
-922.640 543.350 1150.820 100 82 46
-918.504 543.350 1150.820 103 85 49
-914.369 543.350 1150.820 106 84 54
-910.233 543.350 1150.820 105 85 55
-906.098 543.350 1150.820 104 87 55
-901.962 543.350 1150.820 106 90 58
-897.827 543.350 1150.820 105 92 59
-893.691 543.350 1150.820 107 87 56
-889.556 543.350 1150.820 106 87 56
-885.420 543.350 1150.820 106 88 57
-881.285 543.350 1150.820 107 88 57
-877.149 543.350 1150.820 106 89 57
-873.014 543.350 1150.820 104 85 54
-868.878 543.350 1150.820 102 83 52
-864.743 543.350 1150.820 105 86 55
-860.607 543.350 1150.820 103 84 53
-856.472 543.350 1150.820 105 86 55
-852.336 543.350 1150.820 101 82 53
-848.201 543.350 1150.820 102 83 54
-844.065 543.350 1150.820 104 85 56
-831.659 543.350 1150.820 111 90 61
-823.388 543.350 1150.820 42 31 7
-819.253 543.350 1150.820 35 25 9
-815.117 543.350 1150.820 25 25 9
-810.982 543.350 1150.820 22 22 8
-806.846 543.350 1150.820 21 20 10
-802.711 543.350 1150.820 19 18 10
-798.575 543.350 1150.820 17 16 10
-794.440 543.350 1150.820 18 18 6
-790.304 543.350 1150.820 18 18 6
-786.169 543.350 1150.820 20 20 9
-782.033 543.350 1150.820 19 19 8
-777.898 543.350 1150.820 17 18 8
-773.762 543.350 1150.820 17 18 8
-769.627 543.350 1150.820 17 18 9
-765.491 543.350 1150.820 16 17 8
-761.356 543.350 1150.820 20 21 12
-757.220 543.350 1150.820 24 24 22
-753.085 543.350 1150.820 24 24 22
-748.949 543.350 1150.820 23 23 21
-744.814 543.350 1150.820 22 22 20
-740.678 543.350 1150.820 16 16 14
-736.543 543.350 1150.820 8 15 13
-732.407 543.350 1150.820 9 15 13
-728.272 543.350 1150.820 13 15 15
-724.136 543.350 1150.820 17 17 17
-720.001 543.350 1150.820 23 22 24
-715.865 543.350 1150.820 23 23 23
-711.730 543.350 1150.820 23 23 21
-707.594 543.350 1150.820 22 23 16
-703.459 543.350 1150.820 15 16 9
-699.323 543.350 1150.820 13 13 11
-695.188 543.350 1150.820 10 10 8
-691.052 543.350 1150.820 15 15 13
-686.917 543.350 1150.820 16 16 14
-682.781 543.350 1150.820 17 17 14
-678.646 543.350 1150.820 21 20 14
-674.510 543.350 1150.820 20 19 13
-670.375 543.350 1150.820 20 19 13
-666.239 543.350 1150.820 21 20 14
-662.104 543.350 1150.820 19 18 12
-657.969 543.350 1150.820 20 19 13
-653.833 543.350 1150.820 21 20 14
-649.698 543.350 1150.820 21 20 14
-645.562 543.350 1150.820 21 20 14
-641.427 543.350 1150.820 19 20 13
-633.156 543.350 1150.820 18 19 12
-629.020 543.350 1150.820 19 20 13
-624.885 543.350 1150.820 19 20 13
-620.749 543.350 1150.820 15 16 9
-616.614 543.350 1150.820 18 19 12
-612.478 543.350 1150.820 18 19 12
-1194.334 1120.035 2372.243 77 41 12
-1132.541 1069.720 2265.677 59 31 9
-471.872 543.350 1150.820 145 101 52
-451.194 543.350 1150.820 147 103 60
-447.059 543.350 1150.820 147 103 60
-442.923 543.350 1150.820 148 104 61
-418.110 543.350 1150.820 138 99 65
-413.975 543.350 1150.820 140 101 68
-409.839 543.350 1150.820 142 103 70
-405.704 543.350 1150.820 139 100 68
-401.568 543.350 1150.820 135 100 75
-397.433 543.350 1150.820 137 104 78
-393.297 543.350 1150.820 133 103 78
-389.162 543.350 1150.820 134 107 80
-385.026 543.350 1150.820 133 106 83
-380.891 543.350 1150.820 131 102 78
-376.755 543.350 1150.820 129 99 72
-372.620 543.350 1150.820 127 96 64
-368.484 543.350 1150.820 128 96 65
-364.349 543.350 1150.820 138 102 63
-360.213 543.350 1150.820 138 103 63
-356.078 543.350 1150.820 139 106 64
-351.942 543.350 1150.820 135 102 59
-347.807 543.350 1150.820 133 101 63
-343.671 543.350 1150.820 128 96 57
-339.536 543.350 1150.820 125 93 54
-335.401 543.350 1150.820 125 93 54
-331.265 543.350 1150.820 128 92 56
-327.130 543.350 1150.820 135 94 56
-322.994 543.350 1150.820 142 102 52
-318.859 543.350 1150.820 150 106 53
-314.723 543.350 1150.820 138 92 44
-310.588 543.350 1150.820 130 92 47
-306.452 543.350 1150.820 118 87 49
-302.317 543.350 1150.820 105 82 56
-298.181 543.350 1150.820 122 108 93
-294.046 543.350 1150.820 135 123 115
-289.910 543.350 1150.820 135 122 119
-285.775 543.350 1150.820 135 121 121
-281.639 543.350 1150.820 138 126 118
-277.504 543.350 1150.820 138 127 111
-273.368 543.350 1150.820 138 109 84
-269.233 543.350 1150.820 147 104 65
-265.097 543.350 1150.820 149 102 56
-260.962 543.350 1150.820 147 101 53
-256.826 543.350 1150.820 140 99 52
-252.691 543.350 1150.820 109 74 32
-248.555 543.350 1150.820 112 82 55
-244.420 543.350 1150.820 116 92 75
-240.284 543.350 1150.820 199 183 174
-236.149 543.350 1150.820 186 179 172
-232.013 543.350 1150.820 186 180 176
-227.878 543.350 1150.820 184 180 178
-223.742 543.350 1150.820 182 180 179
-219.607 543.350 1150.820 183 182 176
-215.471 543.350 1150.820 183 182 176
-211.336 543.350 1150.820 184 183 177
-207.200 543.350 1150.820 184 183 177
-203.065 543.350 1150.820 184 183 177
-198.929 543.350 1150.820 182 181 175
-194.794 543.350 1150.820 183 182 176
-190.658 543.350 1150.820 185 184 178
-186.523 543.350 1150.820 183 182 176
-182.387 543.350 1150.820 184 183 177
-178.252 543.350 1150.820 184 183 177
-174.117 543.350 1150.820 183 182 176
-169.981 543.350 1150.820 183 182 176
-165.846 543.350 1150.820 184 183 177
-161.710 543.350 1150.820 184 183 177
-157.575 543.350 1150.820 183 182 176
-153.439 543.350 1150.820 182 181 175
-149.304 543.350 1150.820 183 182 176
-145.168 543.350 1150.820 183 182 176
-141.033 543.350 1150.820 183 182 176
-136.897 543.350 1150.820 184 183 177
-132.762 543.350 1150.820 185 184 178
-128.626 543.350 1150.820 185 184 178
-124.491 543.350 1150.820 183 182 176
-120.355 543.350 1150.820 184 183 177
-116.220 543.350 1150.820 184 183 177
-112.084 543.350 1150.820 183 182 176
-107.949 543.350 1150.820 183 182 176
-103.813 543.350 1150.820 184 183 177
-99.678 543.350 1150.820 184 183 177
-95.542 543.350 1150.820 183 182 176
-91.407 543.350 1150.820 183 182 176
-87.271 543.350 1150.820 183 182 176
-83.136 543.350 1150.820 182 181 175
-79.000 543.350 1150.820 184 183 177
-74.865 543.350 1150.820 183 182 176
-70.729 543.350 1150.820 185 184 178
-66.594 543.350 1150.820 184 183 177
-62.458 543.350 1150.820 184 183 177
-58.323 543.350 1150.820 185 184 178
-54.187 543.350 1150.820 185 184 178
-50.052 543.350 1150.820 184 183 177
-45.916 543.350 1150.820 184 183 177
-41.781 543.350 1150.820 181 181 178
-37.645 543.350 1150.820 181 181 179
-33.510 543.350 1150.820 183 182 180
-29.374 543.350 1150.820 183 183 181
-25.239 543.350 1150.820 183 183 181
-16.968 543.350 1150.820 183 183 177
8.671 600.545 1271.959 194 181 183
13.126 595.323 1260.898 196 179 189
17.468 588.921 1247.340 200 183 195
26.319 586.399 1241.999 185 176 185
44.457 590.191 1250.029 42 26 40
62.492 590.827 1251.377 37 29 33
66.487 586.399 1241.999 42 35 38
71.796 593.388 1256.800 27 27 24
75.819 589.555 1248.683 43 44 40
81.535 598.576 1267.789 54 54 50
85.623 595.323 1260.898 44 44 40
95.307 599.231 1269.176 47 45 45
98.787 592.746 1255.440 44 42 42
102.853 590.191 1250.029 35 33 33
113.179 597.270 1265.024 24 24 20
116.959 593.388 1256.800 12 14 10
121.082 591.465 1252.729 12 18 13
125.313 590.191 1250.029 9 17 11
130.508 593.388 1256.800 11 13 12
134.297 590.191 1250.029 11 13 12
138.789 590.191 1250.029 10 12 10
145.317 598.576 1267.789 10 12 10
149.873 598.576 1267.789 12 14 9
154.597 599.231 1269.176 14 15 8
158.984 598.576 1267.789 14 15 8
191.303 681.215 1442.819 38 39 32
194.792 675.335 1430.366 37 38 31
198.221 669.556 1418.125 32 33 26
204.066 672.021 1423.346 22 23 16
209.437 672.846 1425.094 32 33 26
214.295 672.021 1423.346 43 43 41
218.605 669.556 1418.125 47 47 45
221.000 661.470 1400.998 53 53 51
226.034 661.470 1400.998 25 25 23
230.234 659.082 1395.941 23 23 21
237.827 666.298 1411.225 23 23 21
242.898 666.298 1411.225 23 23 21
218.755 543.350 1150.820 25 26 19
222.890 543.350 1150.820 24 25 18
227.026 543.350 1150.820 21 20 14
241.462 567.562 1202.100 24 23 17
235.297 543.350 1150.820 30 29 23
239.432 543.350 1150.820 39 38 32
321.575 587.658 1244.664 17 17 15
440.467 689.795 1460.991 18 19 12
477.378 697.703 1477.741 25 26 17
483.921 699.485 1481.515 27 28 19
489.245 699.485 1481.515 32 33 24
492.682 696.815 1475.861 23 24 15
494.481 684.621 1450.033 22 23 14
506.017 693.287 1468.388 24 25 16
511.942 694.166 1470.249 25 26 17
514.616 690.664 1462.833 23 24 15
523.836 695.930 1473.986 22 23 14
528.461 695.047 1472.115 22 23 14
535.110 696.815 1475.861 22 23 16
545.468 689.795 1460.991 20 21 14
552.807 692.411 1466.532 20 21 14
556.670 690.664 1462.833 20 21 14
559.106 687.198 1455.491 19 20 13
566.469 689.795 1460.991 19 20 13
573.887 692.411 1466.532 20 21 12
578.426 691.536 1464.680 24 26 13
587.398 695.930 1473.986 22 23 13
586.730 688.927 1459.153 21 22 15
589.748 686.337 1453.667 23 23 19
602.522 695.047 1472.115 20 20 18
610.135 697.703 1477.741 20 20 18
613.882 695.930 1473.986 22 22 20
618.393 695.047 1472.115 24 24 22
622.892 694.166 1470.249 39 39 39
621.870 687.198 1455.491 39 39 39
628.678 688.927 1459.153 27 27 27
637.127 692.411 1466.532 15 15 15
644.843 695.047 1472.115 14 15 8
646.849 691.536 1464.680 14 15 8
643.982 682.914 1446.417 15 16 9
665.215 672.846 1425.094 12 12 9
667.874 670.376 1419.861 10 13 6
665.644 663.071 1404.391 10 13 6
700.367 692.411 1466.532 11 14 7
695.959 682.914 1446.417 11 14 7
708.221 689.795 1460.991 13 14 4
622.317 597.270 1265.024 11 11 7
629.609 599.887 1270.566 15 15 13
708.693 670.376 1419.861 15 16 9
706.873 663.875 1406.093 18 19 12
655.368 590.191 1250.029 21 22 15
657.734 588.289 1246.001 22 22 14
661.501 587.658 1244.664 20 19 11
670.289 591.465 1252.729 17 16 8
673.336 590.191 1250.029 19 19 11
669.888 583.277 1235.385 18 17 9
678.664 587.028 1243.330 19 18 10
690.533 593.388 1256.800 20 19 11
687.600 587.028 1243.330 18 17 9
698.053 592.105 1254.083 20 19 11
708.689 597.270 1265.024 21 21 9
696.524 583.277 1235.385 21 21 9
700.964 583.277 1235.385 24 24 12
712.229 588.921 1247.340 23 23 11
718.256 590.191 1250.029 25 26 11
717.337 585.772 1240.670 26 27 12
743.754 599.887 1270.566 27 27 13
742.626 595.323 1260.898 29 26 11
756.623 599.231 1269.176 31 27 11
762.853 600.545 1271.959 31 27 11
764.908 598.576 1267.789 31 27 11
749.797 583.277 1235.385 36 27 14
748.655 578.961 1226.244 36 27 14
761.921 585.772 1240.670 35 26 13
770.500 588.921 1247.340 35 26 13
765.923 582.037 1232.759 35 26 13
768.719 580.803 1230.145 35 26 13
797.670 599.231 1269.176 34 25 12
803.990 600.545 1271.959 31 22 9
807.675 599.887 1270.566 27 27 15
810.466 598.576 1267.789 26 26 14
810.592 595.323 1260.898 22 22 10
796.086 581.419 1231.451 21 21 9
812.588 590.191 1250.029 19 19 7
819.730 592.105 1254.083 20 20 6
823.347 591.465 1252.729 19 19 7
826.064 590.191 1250.029 21 20 12
830.556 590.191 1250.029 20 19 12
829.684 586.399 1241.999 24 23 14
836.835 588.289 1246.001 28 27 19
846.770 592.105 1254.083 28 26 23
852.197 592.746 1255.440 29 27 26
863.249 597.270 1265.024 29 27 26
868.742 597.922 1266.405 33 31 30
872.340 597.270 1265.024 32 30 29
879.765 599.231 1269.176 34 32 31
876.652 594.031 1258.163 35 33 32
882.130 594.676 1259.529 38 36 35
869.660 583.277 1235.385 38 36 35
885.414 590.827 1251.377 38 36 35
887.995 589.555 1248.683 38 36 35
893.444 590.191 1250.029 38 36 35
895.043 588.289 1246.001 38 36 35
903.402 590.827 1251.377 39 37 36
-1034.298 547.486 1150.820 98 79 48
-1030.162 547.486 1150.820 98 79 48
-1026.027 547.486 1150.820 98 79 48
-1021.891 547.486 1150.820 98 79 48
-1017.756 547.486 1150.820 98 79 48
-1013.620 547.486 1150.820 98 79 48
-1009.485 547.486 1150.820 96 77 46
-1005.349 547.486 1150.820 96 77 46
-1001.214 547.486 1150.820 97 78 47
-997.078 547.486 1150.820 96 77 46
-992.943 547.486 1150.820 98 78 46
-988.807 547.486 1150.820 98 77 44
-984.672 547.486 1150.820 97 75 41
-980.537 547.486 1150.820 101 79 44
-976.401 547.486 1150.820 98 76 41
-972.266 547.486 1150.820 96 74 39
-968.130 547.486 1150.820 94 72 37
-963.995 547.486 1150.820 93 71 36
-959.859 547.486 1150.820 95 73 38
-955.724 547.486 1150.820 97 77 42
-951.588 547.486 1150.820 99 81 45
-947.453 547.486 1150.820 100 82 46
-943.317 547.486 1150.820 105 87 51
-939.182 547.486 1150.820 106 88 52
-935.046 547.486 1150.820 109 88 53
-930.911 547.486 1150.820 112 91 56
-926.775 547.486 1150.820 112 91 56
-922.640 547.486 1150.820 112 90 55
-918.504 547.486 1150.820 112 90 55
-914.369 547.486 1150.820 111 89 59
-910.233 547.486 1150.820 109 89 59
-906.098 547.486 1150.820 108 91 59
-901.962 547.486 1150.820 108 92 60
-897.827 547.486 1150.820 105 92 59
-893.691 547.486 1150.820 104 88 56
-889.556 547.486 1150.820 103 88 56
-885.420 547.486 1150.820 102 88 56
-881.285 547.486 1150.820 101 88 55
-877.149 547.486 1150.820 101 88 55
-873.014 547.486 1150.820 102 83 52
-868.878 547.486 1150.820 100 81 50
-864.743 547.486 1150.820 107 88 57
-860.607 547.486 1150.820 103 84 53
-856.472 547.486 1150.820 103 84 53
-852.336 547.486 1150.820 101 82 52
-848.201 547.486 1150.820 103 84 54
-844.065 547.486 1150.820 108 89 58
-831.659 547.486 1150.820 109 87 56
-827.523 547.486 1150.820 101 88 53
-823.388 547.486 1150.820 45 39 11
-819.253 547.486 1150.820 30 27 6
-815.117 547.486 1150.820 25 24 16
-810.982 547.486 1150.820 20 19 11
-806.846 547.486 1150.820 21 20 12
-802.711 547.486 1150.820 20 19 11
-798.575 547.486 1150.820 19 18 10
-794.440 547.486 1150.820 18 17 9
-790.304 547.486 1150.820 18 17 9
-769.627 547.486 1150.820 17 18 9
-765.491 547.486 1150.820 16 17 8
-761.356 547.486 1150.820 20 21 12
-757.220 547.486 1150.820 24 24 22
-753.085 547.486 1150.820 24 24 22
-748.949 547.486 1150.820 23 23 21
-744.814 547.486 1150.820 22 22 20
-740.678 547.486 1150.820 16 16 14
-736.543 547.486 1150.820 8 15 13
-732.407 547.486 1150.820 9 15 13
-728.272 547.486 1150.820 12 14 14
-724.136 547.486 1150.820 15 15 15
-720.001 547.486 1150.820 23 22 24
-715.865 547.486 1150.820 23 23 23
-707.594 547.486 1150.820 23 24 17
-703.459 547.486 1150.820 14 15 8
-699.323 547.486 1150.820 13 13 11
-695.188 547.486 1150.820 10 10 8
-691.052 547.486 1150.820 16 16 13
-686.917 547.486 1150.820 15 15 13
-682.781 547.486 1150.820 17 16 13
-678.646 547.486 1150.820 21 20 14
-674.510 547.486 1150.820 21 20 14
-670.375 547.486 1150.820 20 19 13
-666.239 547.486 1150.820 23 22 16
-662.104 547.486 1150.820 20 21 14
-657.969 547.486 1150.820 20 21 14
-653.833 547.486 1150.820 22 23 16
-649.698 547.486 1150.820 21 22 15
-645.562 547.486 1150.820 19 20 13
-821.548 701.227 1473.986 20 21 14
-666.201 576.060 1210.884 19 20 13
-620.749 547.486 1150.820 18 19 12
-616.614 547.486 1150.820 19 20 13
-612.478 547.486 1150.820 17 18 11
-608.343 547.486 1150.820 19 20 13
-653.699 751.860 1580.418 164 115 57
-476.123 552.418 1161.188 157 110 53
-475.760 556.877 1170.562 151 107 53
-474.908 560.839 1178.889 145 102 52
-465.018 559.134 1175.306 142 100 57
-456.172 553.526 1163.517 144 102 61
-447.059 547.486 1150.820 147 105 64
-442.923 547.486 1150.820 147 105 65
-445.416 555.756 1168.204 147 103 64
-433.258 556.316 1169.382 141 100 62
-427.763 554.639 1165.856 137 103 74
-418.110 547.486 1150.820 133 102 77
-413.975 547.486 1150.820 126 98 78
-409.839 547.486 1150.820 131 104 90
-405.704 547.486 1150.820 132 106 97
-401.568 547.486 1150.820 136 114 100
-397.433 547.486 1150.820 139 117 103
-393.297 547.486 1150.820 133 111 97
-389.162 547.486 1150.820 126 104 89
-385.026 547.486 1150.820 120 97 73
-380.891 547.486 1150.820 122 98 72
-376.755 547.486 1150.820 123 95 70
-372.620 547.486 1150.820 123 95 67
-368.484 547.486 1150.820 123 93 64
-364.349 547.486 1150.820 133 96 65
-360.213 547.486 1150.820 134 97 64
-356.078 547.486 1150.820 137 101 65
-351.942 547.486 1150.820 137 101 62
-347.807 547.486 1150.820 132 100 61
-343.671 547.486 1150.820 129 97 58
-339.536 547.486 1150.820 128 96 57
-335.401 547.486 1150.820 128 96 57
-331.265 547.486 1150.820 130 94 58
-327.130 547.486 1150.820 137 96 58
-322.994 547.486 1150.820 144 104 54
-318.859 547.486 1150.820 153 109 56
-314.723 547.486 1150.820 142 96 48
-310.588 547.486 1150.820 133 89 45
-306.452 547.486 1150.820 123 86 50
-302.317 547.486 1150.820 110 81 57
-298.181 547.486 1150.820 123 103 90
-294.046 547.486 1150.820 134 122 114
-289.910 547.486 1150.820 137 124 121
-285.775 547.486 1150.820 139 125 126
-281.639 547.486 1150.820 137 125 117
-277.504 547.486 1150.820 141 130 114
-273.368 547.486 1150.820 143 120 92
-269.233 547.486 1150.820 139 103 62
-265.097 547.486 1150.820 146 104 56
-260.962 547.486 1150.820 143 103 53
-256.826 547.486 1150.820 139 98 51
-252.691 547.486 1150.820 116 81 39
-248.555 547.486 1150.820 111 81 54
-244.420 547.486 1150.820 114 90 72
-240.284 547.486 1150.820 196 179 169
-236.149 547.486 1150.820 186 179 172
-232.013 547.486 1150.820 184 179 175
-227.878 547.486 1150.820 184 181 178
-223.742 547.486 1150.820 184 180 176
-219.607 547.486 1150.820 184 183 177
-215.471 547.486 1150.820 184 183 177
-211.336 547.486 1150.820 183 182 176
-207.200 547.486 1150.820 183 182 176
-203.065 547.486 1150.820 183 182 176
-198.929 547.486 1150.820 183 182 176
-194.794 547.486 1150.820 183 182 176
-190.658 547.486 1150.820 183 182 176
-186.523 547.486 1150.820 183 182 176
-182.387 547.486 1150.820 182 181 175
-178.252 547.486 1150.820 184 183 177
-174.117 547.486 1150.820 183 182 176
-169.981 547.486 1150.820 183 182 176
-165.846 547.486 1150.820 183 182 176
-161.710 547.486 1150.820 183 182 176
-157.575 547.486 1150.820 183 182 176
-153.439 547.486 1150.820 183 182 176
-149.304 547.486 1150.820 183 182 176
-145.168 547.486 1150.820 183 182 176
-141.033 547.486 1150.820 183 182 176
-136.897 547.486 1150.820 183 182 176
-132.762 547.486 1150.820 183 182 176
-128.626 547.486 1150.820 182 183 176
-124.491 547.486 1150.820 182 183 176
-120.355 547.486 1150.820 183 184 177
-116.220 547.486 1150.820 183 184 177
-112.084 547.486 1150.820 183 182 176
-107.949 547.486 1150.820 183 182 176
-103.813 547.486 1150.820 184 183 177
-99.678 547.486 1150.820 184 183 177
-95.542 547.486 1150.820 183 182 176
-91.407 547.486 1150.820 183 182 176
-87.271 547.486 1150.820 183 182 176
-83.136 547.486 1150.820 183 182 176
-79.000 547.486 1150.820 182 181 175
-74.865 547.486 1150.820 182 181 175
-70.729 547.486 1150.820 183 182 176
-66.594 547.486 1150.820 182 181 175
-62.458 547.486 1150.820 182 181 175
-58.323 547.486 1150.820 183 182 176
-54.187 547.486 1150.820 183 182 176
-50.052 547.486 1150.820 182 181 175
-45.916 547.486 1150.820 184 183 177
-41.781 547.486 1150.820 186 181 179
-37.645 547.486 1150.820 187 180 181
-33.510 547.486 1150.820 189 182 183
-29.374 547.486 1150.820 192 185 186
-25.239 547.486 1150.820 192 185 186
12.820 585.844 1231.451 50 41 46
17.010 577.870 1214.688 42 37 39
21.264 574.860 1208.361 44 40 37
25.660 576.060 1210.884 40 40 34
29.948 574.860 1208.361 36 43 41
34.362 576.060 1210.884 42 40 39
38.795 577.265 1213.417 42 40 39
43.155 577.265 1213.417 41 39 38
47.367 575.459 1209.621 37 35 34
51.660 574.860 1208.361 37 36 30
56.178 576.662 1212.149 36 35 29
60.533 576.662 1212.149 35 34 28
64.822 576.060 1210.884 34 33 27
70.050 583.367 1226.244 33 32 26
74.615 584.603 1228.842 46 45 39
81.180 600.506 1262.271 50 49 43
95.203 603.132 1267.789 38 39 32
98.361 594.683 1250.029 32 33 26
101.110 584.603 1228.842 27 28 21
113.055 601.161 1263.646 21 20 18
116.580 595.967 1252.729 13 14 12
120.821 594.683 1250.029 10 14 11
124.508 590.862 1241.999 6 13 9
129.945 595.324 1251.377 11 13 11
133.577 591.496 1243.330 11 13 11
138.045 591.496 1243.330 10 12 10
143.901 597.257 1255.440 10 12 10
149.383 601.161 1263.646 12 13 9
154.260 602.473 1266.405 13 14 7
158.811 602.473 1266.405 13 14 7
162.298 598.553 1258.163 19 20 13
189.418 679.637 1428.604 37 38 31
194.552 679.637 1428.604 37 38 31
197.979 673.828 1416.394 25 26 19
204.316 677.967 1425.094 19 20 13
209.695 678.801 1426.847 35 36 29
214.033 676.306 1421.601 43 43 41
218.072 673.007 1414.667 52 52 50
220.733 665.700 1399.308 37 37 35
225.761 665.700 1399.308 23 23 21
230.512 664.898 1397.622 23 23 21
236.103 666.504 1400.998 23 23 21
241.722 668.118 1404.391 23 23 21
260.651 691.561 1453.667 29 29 26
266.542 693.298 1457.320 30 31 24
292.360 692.428 1455.491 25 25 19
297.217 691.561 1453.667 28 29 22
307.841 703.910 1479.626 36 36 30
311.174 699.449 1470.249 32 32 26
346.847 686.400 1442.819 20 20 16
347.280 677.136 1423.346 17 17 15
354.133 680.475 1430.366 18 18 16
361.951 685.547 1441.027 21 21 19
362.180 676.306 1421.601 16 16 14
414.216 695.045 1460.991 14 16 16
417.887 692.428 1455.491 17 17 15
422.587 691.561 1453.667 17 17 15
431.597 697.681 1466.532 17 17 15
433.035 691.561 1453.667 17 17 15
435.530 687.255 1444.616 17 18 11
441.822 688.971 1448.223 23 24 17
449.269 692.428 1455.491 26 27 20
455.071 693.298 1457.320 26 27 20
465.572 701.227 1473.986 24 25 18
466.717 695.045 1460.991 26 27 18
473.757 697.681 1466.532 25 26 17
482.689 703.013 1477.741 23 24 15
488.621 703.910 1479.626 32 33 24
489.567 697.681 1466.532 25 26 17
489.883 690.695 1451.848 23 24 15
490.800 684.697 1439.239 24 25 16
500.944 691.561 1453.667 22 23 14
506.168 691.561 1453.667 23 24 15
512.033 692.428 1455.491 22 23 14
521.187 697.681 1466.532 22 23 14
527.124 698.564 1468.388 22 23 14
529.718 695.045 1460.991 21 22 15
532.955 692.428 1455.491 22 23 16
538.861 693.298 1457.320 20 21 14
542.055 690.695 1451.848 20 21 14
548.646 692.428 1455.491 20 21 14
553.876 692.428 1455.491 20 21 14
555.621 688.112 1446.417 19 20 13
564.337 692.428 1455.491 19 20 13
571.000 694.170 1459.153 20 21 13
577.697 695.921 1462.833 24 26 13
587.398 701.227 1473.986 22 23 13
583.793 690.695 1451.848 21 22 15
588.274 689.832 1450.033 21 22 17
601.759 699.449 1470.249 20 21 16
609.359 702.119 1475.861 21 21 16
613.103 700.337 1472.115 23 23 18
617.609 699.449 1470.249 17 18 11
621.317 697.681 1466.532 25 26 19
621.870 692.428 1455.491 39 40 33
627.100 692.428 1455.491 36 37 30
632.331 692.428 1455.491 24 25 18
640.777 695.921 1462.833 14 15 8
640.381 689.832 1450.033 13 14 7
643.982 688.112 1446.417 15 16 9
649.179 688.112 1446.417 14 15 8
654.377 688.112 1446.417 13 14 7
668.500 681.315 1432.132 12 13 6
671.987 679.637 1428.604 12 13 6
673.801 676.306 1421.601 12 13 6
696.828 688.971 1448.223 12 13 6
702.910 689.832 1450.033 10 13 6
624.360 603.792 1269.176 11 14 7
634.474 609.123 1280.383 11 14 7
711.305 677.967 1425.094 17 18 11
656.784 595.967 1252.729 21 22 15
659.150 594.042 1248.683 18 19 11
662.924 593.404 1247.340 18 19 10
670.289 595.967 1252.729 18 19 10
673.336 594.683 1250.029 17 18 9
669.888 587.716 1235.385 17 18 9
680.122 592.766 1246.001 17 16 8
692.785 599.854 1260.898 19 18 10
689.077 592.766 1246.001 19 18 10
696.547 595.324 1251.377 19 18 10
720.474 611.824 1286.061 20 20 8
700.253 590.862 1241.999 20 20 8
712.996 594.042 1248.683 24 24 12
719.031 595.324 1251.377 25 25 11
716.571 589.600 1239.345 25 25 11
744.244 601.161 1263.646 27 24 12
758.282 605.116 1271.959 29 24 14
763.690 605.780 1273.355 29 24 14
765.745 603.792 1269.176 29 24 14
748.203 586.467 1232.759 27 25 10
762.737 590.862 1241.999 29 27 12
771.329 594.042 1248.683 29 27 12
765.110 585.844 1231.451 30 28 13
767.905 584.603 1228.842 30 28 13
773.960 585.844 1231.451 30 28 13
806.644 607.113 1276.157 26 24 9
808.561 605.116 1271.959 25 25 13
812.241 604.453 1270.566 21 21 9
809.712 599.202 1259.529 18 18 6
795.242 585.223 1230.145 21 21 9
814.343 595.967 1252.729 19 19 7
819.730 596.611 1254.083 19 19 5
824.237 596.611 1254.083 19 19 7
826.064 594.683 1250.029 19 18 10
830.556 594.683 1250.029 19 18 11
828.797 590.230 1240.670 23 22 13
834.147 590.862 1241.999 27 26 18
845.855 595.967 1252.729 26 24 21
853.121 597.904 1256.800 28 26 25
864.191 602.473 1266.405 31 29 28
871.597 604.453 1270.566 33 31 30
875.204 603.792 1269.176 30 28 27
885.578 607.781 1277.562 34 32 31
879.514 600.506 1262.271 35 33 32
881.173 598.553 1258.163 34 32 31
872.447 589.600 1239.345 34 32 31
893.444 594.683 1250.029 36 34 33
896.005 593.404 1247.340 36 34 33
904.377 595.967 1252.729 36 34 33
906.920 594.683 1250.029 36 34 33
868.026 547.486 1150.820 9 9 5
872.162 547.486 1150.820 9 10 3
-1034.298 551.621 1150.820 99 76 46
-1030.162 551.621 1150.820 99 76 46
-1026.027 551.621 1150.820 101 78 48
-1021.891 551.621 1150.820 101 78 48
-1017.756 551.621 1150.820 101 78 47
-1013.620 551.621 1150.820 99 77 42
-1009.485 551.621 1150.820 97 75 40
-1005.349 551.621 1150.820 96 74 39
-1001.214 551.621 1150.820 96 74 39
-997.078 551.621 1150.820 97 75 40
-992.943 551.621 1150.820 97 75 40
-988.807 551.621 1150.820 96 74 39
-984.672 551.621 1150.820 95 73 38
-980.537 551.621 1150.820 97 75 40
-976.401 551.621 1150.820 99 77 42
-972.266 551.621 1150.820 103 81 46
-968.130 551.621 1150.820 105 83 48
-963.995 551.621 1150.820 110 88 53
-959.859 551.621 1150.820 112 90 55
-955.724 551.621 1150.820 113 94 58
-951.588 551.621 1150.820 112 94 58
-947.453 551.621 1150.820 111 93 57
-943.317 551.621 1150.820 109 91 55
-939.182 551.621 1150.820 112 94 58
-935.046 551.621 1150.820 115 89 55
-930.911 551.621 1150.820 119 92 59
-926.775 551.621 1150.820 119 92 59
-922.640 551.621 1150.820 118 91 58
-918.504 551.621 1150.820 116 90 56
-914.369 551.621 1150.820 112 90 60
-910.233 551.621 1150.820 112 89 59
-906.098 551.621 1150.820 112 89 59
-901.962 551.621 1150.820 109 86 56
-897.827 551.621 1150.820 111 88 58
-893.691 551.621 1150.820 110 87 57
-889.556 551.621 1150.820 108 85 55
-885.420 551.621 1150.820 107 84 54
-881.285 551.621 1150.820 107 84 54
-877.149 551.621 1150.820 107 84 54
-873.014 551.621 1150.820 106 83 53
-868.878 551.621 1150.820 105 83 53
-864.743 551.621 1150.820 104 86 54
-860.607 551.621 1150.820 101 85 53
-856.472 551.621 1150.820 99 85 52
-852.336 551.621 1150.820 103 84 53
-848.201 551.621 1150.820 105 86 55
-844.065 551.621 1150.820 108 89 58
-839.930 551.621 1150.820 110 91 60
-835.794 551.621 1150.820 111 89 60
-831.659 551.621 1150.820 110 89 58
-827.523 551.621 1150.820 107 94 59
-823.388 551.621 1150.820 52 46 18
-819.253 551.621 1150.820 30 28 6
-815.117 551.621 1150.820 25 25 11
-810.982 551.621 1150.820 22 22 8
-806.846 551.621 1150.820 22 22 8
-802.711 551.621 1150.820 20 20 6
-798.575 551.621 1150.820 19 19 5
-794.440 551.621 1150.820 18 17 9
-790.304 551.621 1150.820 18 17 9
-769.627 551.621 1150.820 17 18 9
-765.491 551.621 1150.820 16 17 9
-761.356 551.621 1150.820 19 20 14
-757.220 551.621 1150.820 23 23 23
-753.085 551.621 1150.820 23 23 23
-748.949 551.621 1150.820 23 23 20
-744.814 551.621 1150.820 23 24 17
-740.678 551.621 1150.820 18 19 12
-799.177 598.530 1248.683 13 14 4
-728.272 551.621 1150.820 12 12 8
-724.136 551.621 1150.820 15 15 13
-720.001 551.621 1150.820 22 22 20
-715.865 551.621 1150.820 22 22 19
-707.594 551.621 1150.820 22 23 14
-703.459 551.621 1150.820 15 16 6
-699.323 551.621 1150.820 12 13 3
-695.188 551.621 1150.820 10 11 2
-691.052 551.621 1150.820 14 14 10
-686.917 551.621 1150.820 16 16 13
-682.781 551.621 1150.820 17 17 14
-678.646 551.621 1150.820 21 20 14
-674.510 551.621 1150.820 21 20 14
-670.375 551.621 1150.820 21 20 14
-666.239 551.621 1150.820 22 21 15
-662.104 551.621 1150.820 20 21 14
-657.969 551.621 1150.820 20 21 14
-653.833 551.621 1150.820 22 23 16
-649.698 551.621 1150.820 21 22 15
-645.562 551.621 1150.820 19 20 13
-819.465 704.733 1470.249 17 18 11
-804.999 696.784 1453.667 17 18 11
-668.294 582.235 1214.688 22 23 16
-616.614 551.621 1150.820 18 19 12
-642.433 578.599 1207.104 17 18 11
-639.749 584.069 1218.515 17 16 7
-455.259 556.591 1161.188 152 107 50
-447.059 551.621 1150.820 147 101 51
-442.923 551.621 1150.820 148 101 55
-434.652 551.621 1150.820 145 104 59
-430.517 551.621 1150.820 140 105 64
-426.381 551.621 1150.820 139 111 81
-422.246 551.621 1150.820 124 100 79
-418.110 551.621 1150.820 122 101 82
-413.975 551.621 1150.820 113 95 79
-409.839 551.621 1150.820 120 103 93
-405.704 551.621 1150.820 123 109 100
-401.568 551.621 1150.820 131 108 102
-397.433 551.621 1150.820 127 105 95
-393.297 551.621 1150.820 123 102 85
-389.162 551.621 1150.820 117 97 75
-385.026 551.621 1150.820 118 95 71
-380.891 551.621 1150.820 121 97 72
-376.755 551.621 1150.820 121 94 68
-372.620 551.621 1150.820 122 94 66
-368.484 551.621 1150.820 121 91 62
-364.349 551.621 1150.820 126 88 61
-360.213 551.621 1150.820 130 93 63
-356.078 551.621 1150.820 133 96 65
-351.942 551.621 1150.820 138 101 68
-347.807 551.621 1150.820 132 100 60
-343.671 551.621 1150.820 132 100 60
-339.536 551.621 1150.820 133 100 59
-335.401 551.621 1150.820 134 99 59
-331.265 551.621 1150.820 135 97 58
-327.130 551.621 1150.820 140 100 61
-322.994 551.621 1150.820 151 103 55
-318.859 551.621 1150.820 155 107 57
-314.723 551.621 1150.820 140 95 50
-310.588 551.621 1150.820 131 86 46
-306.452 551.621 1150.820 125 85 43
-302.317 551.621 1150.820 113 86 53
-298.181 551.621 1150.820 120 100 85
-294.046 551.621 1150.820 134 123 118
-289.910 551.621 1150.820 137 127 122
-285.775 551.621 1150.820 136 126 121
-281.639 551.621 1150.820 136 126 121
-277.504 551.621 1150.820 136 126 121
-273.368 551.621 1150.820 142 122 99
-269.233 551.621 1150.820 133 97 62
-265.097 551.621 1150.820 146 102 57
-260.962 551.621 1150.820 148 102 52
-256.826 551.621 1150.820 144 101 54
-252.691 551.621 1150.820 129 89 49
-248.555 551.621 1150.820 104 73 41
-244.420 551.621 1150.820 117 91 67
-240.284 551.621 1150.820 173 154 135
-236.149 551.621 1150.820 187 176 166
-232.013 551.621 1150.820 181 179 176
-227.878 551.621 1150.820 182 182 178
-223.742 551.621 1150.820 186 180 173
-219.607 551.621 1150.820 183 182 176
-215.471 551.621 1150.820 183 182 176
-211.336 551.621 1150.820 183 182 176
-207.200 551.621 1150.820 183 182 176
-203.065 551.621 1150.820 183 182 176
-198.929 551.621 1150.820 183 182 176
-194.794 551.621 1150.820 183 182 176
-190.658 551.621 1150.820 183 182 176
-186.523 551.621 1150.820 183 182 176
-182.387 551.621 1150.820 183 182 176
-178.252 551.621 1150.820 182 181 175
-174.117 551.621 1150.820 183 182 176
-169.981 551.621 1150.820 183 182 176
-165.846 551.621 1150.820 183 182 176
-161.710 551.621 1150.820 183 182 176
-157.575 551.621 1150.820 183 182 176
-153.439 551.621 1150.820 183 182 176
-149.304 551.621 1150.820 183 182 176
-145.168 551.621 1150.820 183 182 176
-141.033 551.621 1150.820 183 182 176
-136.897 551.621 1150.820 183 182 176
-132.762 551.621 1150.820 183 182 176
-128.626 551.621 1150.820 182 183 176
-124.491 551.621 1150.820 182 183 176
-120.355 551.621 1150.820 183 184 177
-116.220 551.621 1150.820 183 184 177
-112.084 551.621 1150.820 183 182 176
-107.949 551.621 1150.820 183 182 176
-103.813 551.621 1150.820 184 182 177
-99.678 551.621 1150.820 185 183 178
-95.542 551.621 1150.820 182 182 176
-91.407 551.621 1150.820 181 182 174
-87.271 551.621 1150.820 182 183 175
-83.136 551.621 1150.820 180 182 174
-79.000 551.621 1150.820 180 183 174
-74.865 551.621 1150.820 184 176 177
-70.729 551.621 1150.820 190 182 183
-66.594 551.621 1150.820 188 180 181
-62.458 551.621 1150.820 191 183 184
-58.323 551.621 1150.820 194 188 189
-54.187 551.621 1150.820 193 185 186
-50.052 551.621 1150.820 188 175 178
-45.916 551.621 1150.820 161 145 149
-41.781 551.621 1150.820 142 128 130
-37.645 551.621 1150.820 122 109 111
-33.510 551.621 1150.820 109 97 99
-29.374 551.621 1150.820 109 98 99
-25.239 551.621 1150.820 114 103 103
-21.103 551.621 1150.820 117 110 104
-16.968 551.621 1150.820 118 111 105
16.116 551.621 1150.820 60 48 40
24.387 551.621 1150.820 85 72 56
28.522 551.621 1150.820 55 46 34
32.658 551.621 1150.820 41 40 34
36.793 551.621 1150.820 39 38 32
40.929 551.621 1150.820 39 38 31
45.064 551.621 1150.820 38 37 30
49.200 551.621 1150.820 37 36 30
53.335 551.621 1150.820 36 35 29
57.471 551.621 1150.820 33 32 26
61.606 551.621 1150.820 32 31 25
70.125 588.396 1227.541 31 30 24
74.932 591.526 1234.071 38 37 31
98.740 661.945 1380.984 39 38 32
103.334 659.590 1376.070 29 30 23
107.135 652.622 1361.534 26 27 20
110.986 646.551 1348.868 23 24 17
116.706 601.118 1254.083 14 15 13
120.821 599.175 1250.029 11 15 12
124.109 593.419 1238.022 8 15 11
129.526 597.886 1247.340 11 13 11
133.434 595.326 1241.999 11 13 10
137.750 594.689 1240.670 11 12 9
156.429 654.158 1364.737 10 12 7
149.709 607.024 1266.405 10 11 8
158.811 607.024 1266.405 12 11 13
162.123 602.420 1256.800 13 12 14
192.419 677.264 1412.943 31 32 25
197.017 675.619 1409.510 26 27 20
202.821 678.090 1414.667 28 29 22
206.395 673.165 1404.391 41 42 35
211.441 673.165 1404.391 45 46 39
215.965 671.539 1400.998 48 49 42
220.467 669.921 1397.622 24 24 22
225.489 669.921 1397.622 21 21 21
229.958 668.310 1394.263 21 21 21
234.968 668.310 1394.263 21 21 21
240.557 669.921 1397.622 21 21 21
259.999 695.043 1450.033 27 27 27
266.542 698.535 1457.320 30 30 30
273.843 703.841 1468.388 27 27 27
290.041 704.733 1470.249 22 23 16
292.360 697.659 1455.491 26 27 20
297.590 697.659 1455.491 27 28 21
303.201 698.535 1457.320 34 35 28
306.957 672.351 1402.692 38 39 32
311.621 671.539 1400.998 29 30 23
322.101 683.088 1425.094 31 32 25
324.038 676.440 1411.225 33 34 27
338.160 695.043 1450.033 32 33 26
342.942 694.175 1448.223 25 26 19
345.986 689.869 1439.239 19 20 15
346.007 679.748 1418.125 17 17 15
353.262 683.929 1426.847 18 18 16
363.758 694.175 1448.223 20 20 18
360.854 678.918 1416.394 18 18 16
374.635 695.043 1450.033 17 17 15
379.371 694.175 1448.223 16 16 14
396.469 696.784 1453.667 13 15 15
401.692 696.784 1453.667 13 15 15
407.427 697.659 1455.491 15 17 17
413.175 698.535 1457.320 14 16 16
416.841 695.912 1451.848 17 17 15
423.118 697.659 1455.491 17 17 15
430.509 701.178 1462.833 17 17 15
431.952 695.043 1450.033 17 17 14
437.710 695.912 1451.848 16 17 10
442.374 695.043 1450.033 22 23 16
449.269 697.659 1455.491 24 25 18
455.071 698.535 1457.320 26 27 20
466.164 707.422 1475.861 27 28 21
466.717 700.295 1460.991 26 27 18
473.159 702.063 1464.680 24 25 16
482.074 707.422 1475.861 26 27 18
488.621 709.227 1479.626 35 36 27
490.187 703.841 1468.388 23 24 15
489.270 695.043 1450.033 24 25 16
500.317 695.912 1451.848 23 24 15
505.534 695.912 1451.848 24 25 18
511.392 696.784 1453.667 22 23 16
517.913 698.535 1457.320 24 25 18
523.808 699.414 1459.153 22 23 16
527.724 697.659 1455.491 20 21 14
532.955 697.659 1455.491 20 21 14
538.185 697.659 1455.491 20 21 14
542.734 696.784 1453.667 20 21 14
548.646 697.659 1455.491 21 22 15
553.876 697.659 1455.491 20 21 14
556.314 694.175 1448.223 19 20 13
564.337 697.659 1455.491 18 19 12
570.282 698.535 1457.320 19 20 13
577.697 701.178 1462.833 23 24 17
587.398 706.524 1473.986 20 21 14
583.063 695.043 1450.033 20 21 14
588.274 695.043 1450.033 20 21 14
