ply
format ascii 1.0
element vertex 1301
property float x
property float y
property float z
property uchar red
property uchar green
property uchar blue
end_header
-709.212 -247.245 843.043 34 32 33
-653.468 -228.789 780.112 34 32 33
-468.524 -171.390 584.396 41 25 21
-455.636 -167.426 570.879 32 22 19
-453.584 -167.426 570.879 26 20 19
-451.533 -167.426 570.879 20 18 17
-449.482 -167.426 570.879 20 20 18
-447.430 -167.426 570.879 20 20 18
-452.505 -170.104 580.013 20 20 18
-443.327 -167.426 570.879 20 20 18
-441.276 -167.426 570.879 22 22 20
-439.224 -167.426 570.879 24 24 24
-437.173 -167.426 570.879 26 26 26
-435.121 -167.426 570.879 28 28 28
-440.219 -170.189 580.303 28 28 28
-438.573 -170.360 580.885 28 28 28
-431.515 -168.420 574.271 32 30 31
-433.746 -170.104 580.013 36 34 35
-431.662 -170.104 580.013 36 34 35
-434.575 -172.083 586.761 37 35 36
-428.135 -170.360 580.885 37 35 34
-440.963 -177.192 604.181 38 36 37
-1224.536 -494.489 1686.085 39 36 39
-1211.434 -491.631 1676.339 53 50 55
-1188.239 -484.628 1652.460 75 66 78
-1160.804 -475.816 1622.415 102 93 105
-1151.752 -474.489 1617.889 119 110 122
-1145.939 -474.489 1617.889 121 112 124
-1149.746 -478.493 1631.542 124 115 127
-1148.730 -480.521 1638.456 126 117 127
-1142.842 -480.521 1638.456 128 119 129
-1140.175 -481.882 1643.097 130 121 131
-1132.666 -481.201 1640.773 126 117 127
-1115.723 -476.483 1624.687 120 117 123
-1100.636 -472.512 1611.148 105 101 110
-1091.814 -471.203 1606.685 92 88 98
-1089.057 -472.512 1611.148 97 92 106
-1100.074 -479.843 1636.145 93 88 104
-1116.236 -489.509 1669.103 86 83 99
-1119.906 -493.772 1683.638 85 82 97
-1123.641 -498.109 1698.428 89 83 95
-1111.031 -495.209 1688.539 88 79 91
-1100.159 -493.056 1681.198 101 94 104
-1089.381 -490.922 1673.920 121 115 124
-1078.696 -488.806 1666.705 126 120 129
-1078.907 -491.631 1676.339 126 120 129
-1065.187 -488.104 1664.314 126 120 129
-1079.337 -497.381 1695.945 130 121 131
-1059.304 -490.922 1673.920 129 120 130
-1078.182 -502.524 1713.481 130 121 131
-1068.867 -501.044 1708.434 134 125 135
-1054.959 -497.381 1695.945 132 126 132
-1058.147 -501.783 1710.954 107 105 106
-1042.771 -497.381 1695.945 91 89 90
-1045.850 -501.783 1710.954 90 88 89
-1035.122 -499.572 1703.416 105 103 104
-1025.987 -498.109 1698.428 100 96 98
-1021.380 -498.840 1700.919 91 84 87
-1030.375 -506.263 1726.230 93 82 86
-1025.698 -507.018 1728.803 92 80 84
-1025.600 -510.058 1739.170 87 75 79
-1027.049 -513.911 1752.306 87 79 80
-1014.622 -510.824 1741.782 79 72 73
-1014.455 -513.911 1752.306 63 59 59
-1008.158 -513.911 1752.306 49 47 46
-1004.897 -515.468 1757.616 41 41 41
-1012.387 -522.594 1781.915 47 47 47
-989.268 -513.911 1752.306 55 55 55
-225.882 -170.531 581.467 42 42 42
-224.017 -170.702 582.050 39 43 42
-221.149 -170.104 580.013 38 38 38
-218.955 -170.019 579.723 40 40 40
-213.563 -167.426 570.879 38 38 38
-211.512 -167.426 570.879 38 38 38
-209.460 -167.426 570.879 38 38 38
-207.409 -167.426 570.879 37 37 35
-217.337 -177.192 604.181 37 37 35
-215.166 -177.192 604.181 36 36 34
-199.203 -167.426 570.879 42 36 29
-197.152 -167.426 570.879 52 36 27
-195.100 -167.426 570.879 132 104 88
-190.997 -167.426 570.879 181 146 123
-188.946 -167.426 570.879 178 144 120
-186.894 -167.426 570.879 167 134 104
-184.843 -167.426 570.879 166 134 97
-182.791 -167.426 570.879 166 134 94
-180.740 -167.426 570.879 168 132 94
-189.112 -177.192 604.181 163 127 89
-182.599 -177.192 604.181 175 142 111
-180.428 -177.192 604.181 178 145 114
-293.024 -291.275 993.173 174 141 110
-288.355 -293.790 1001.750 186 153 122
-284.510 -293.536 1000.886 198 162 132
-277.796 -294.044 1002.616 204 168 138
-269.533 -289.047 985.579 207 171 141
-160.887 -177.192 604.181 216 178 153
-158.716 -177.192 604.181 217 179 154
-183.870 -211.048 719.619 220 184 156
-127.402 -167.426 570.879 178 137 101
-125.351 -167.426 570.879 188 147 111
-123.299 -167.426 570.879 192 150 118
-121.248 -167.426 570.879 195 153 124
-119.196 -167.426 570.879 199 157 129
-117.145 -167.426 570.879 201 159 131
-115.093 -167.426 570.879 204 161 138
-113.042 -167.426 570.879 204 160 142
-117.465 -177.192 604.181 218 173 161
-115.294 -177.192 604.181 228 182 178
-113.122 -177.192 604.181 231 179 176
-110.951 -177.192 604.181 225 172 168
-108.780 -177.192 604.181 221 177 168
-84.898 -177.192 604.181 78 74 76
-82.727 -177.192 604.181 79 75 77
280.398 -559.554 1907.939 93 85 90
288.679 -562.329 1917.399 88 81 84
295.081 -561.401 1914.235 88 81 84
300.472 -558.635 1904.806 89 82 85
308.330 -560.476 1911.082 91 84 87
110.568 -167.426 570.879 249 249 249
278.041 -366.604 1250.029 249 249 249
282.838 -367.000 1251.377 249 249 249
286.100 -365.423 1246.001 249 249 249
290.578 -365.423 1246.001 249 249 249
295.055 -365.423 1246.001 249 249 249
299.533 -365.423 1246.001 249 249 249
304.993 -366.604 1250.029 249 246 249
309.485 -366.604 1250.029 166 163 166
313.977 -366.604 1250.029 91 88 91
318.812 -367.000 1251.377 91 88 91
322.961 -366.604 1250.029 86 84 85
327.806 -367.000 1251.377 84 82 83
332.662 -367.396 1252.729 85 83 84
336.800 -367.000 1251.377 83 81 82
341.297 -367.000 1251.377 79 77 78
346.167 -367.396 1252.729 74 72 73
350.669 -367.396 1252.729 75 73 74
350.226 -317.952 1084.137 208 209 211
547.734 -481.201 1640.773 246 247 248
445.547 -360.391 1228.842 192 197 202
221.232 -177.192 604.181 163 168 173
399.752 -317.063 1081.106 131 136 141
225.574 -177.192 604.181 104 109 114
227.745 -177.192 604.181 88 96 94
229.916 -177.192 604.181 69 76 74
232.087 -177.192 604.181 76 79 78
234.258 -177.192 604.181 82 82 82
-709.212 -244.215 843.043 34 32 33
-653.907 -226.137 780.637 34 32 33
-468.524 -169.290 584.396 43 27 23
-455.636 -165.374 570.879 37 27 23
-453.584 -165.374 570.879 28 21 20
-451.533 -165.374 570.879 22 20 19
-449.482 -165.374 570.879 20 20 18
-447.430 -165.374 570.879 20 20 18
-452.053 -167.852 579.434 20 20 18
-443.327 -165.374 570.879 21 21 19
-441.276 -165.374 570.879 23 23 21
-439.224 -165.374 570.879 23 23 23
-437.173 -165.374 570.879 24 24 24
-435.121 -165.374 570.879 26 26 26
-433.070 -165.374 570.879 27 27 27
-438.134 -168.104 580.303 27 27 27
-431.515 -166.357 574.271 32 30 31
-433.096 -167.768 579.145 36 34 35
-431.015 -167.768 579.145 36 34 35
-434.136 -169.803 586.168 37 35 36
-418.710 -165.374 570.879 38 36 33
-440.963 -175.021 604.181 38 36 37
-1219.220 -486.310 1678.765 39 36 39
-1207.943 -484.208 1671.508 52 49 54
-1184.863 -477.330 1647.765 76 67 79
-1159.183 -469.330 1620.149 101 92 104
-1151.752 -468.675 1617.889 118 109 121
-1142.751 -467.372 1613.389 120 111 123
-1141.717 -469.330 1620.149 123 114 126
-1140.674 -471.305 1626.966 123 114 124
-1136.422 -471.967 1629.251 125 116 126
-1132.157 -472.630 1631.542 128 119 129
-1127.880 -473.296 1633.840 129 120 130
-1109.508 -468.023 1615.636 154 152 152
-1099.110 -466.075 1608.913 167 165 167
-1087.296 -463.504 1600.037 109 106 110
-1084.538 -464.786 1604.463 95 91 99
-1089.319 -469.330 1620.149 93 89 99
-1101.965 -477.330 1647.765 89 86 102
-1111.837 -484.208 1671.508 91 87 102
-1112.241 -487.015 1681.198 92 86 98
-1103.003 -485.607 1676.339 93 84 96
-1096.979 -485.607 1676.339 115 104 114
-1081.577 -481.433 1661.929 133 120 131
-1067.955 -478.009 1650.109 131 118 129
-1075.798 -484.208 1671.508 129 116 127
-1068.252 -483.511 1669.103 129 116 127
-1073.062 -488.431 1686.085 128 119 129
-1062.370 -486.310 1678.765 127 118 128
-1076.592 -495.634 1710.954 127 118 128
-1062.607 -492.006 1698.428 133 124 134
-1051.884 -489.855 1691.001 133 126 133
-1053.486 -493.451 1703.416 107 105 106
-1039.730 -489.855 1691.001 93 91 92
-1039.716 -492.728 1700.919 89 87 88
-1032.091 -492.006 1698.428 104 102 103
-1024.487 -491.287 1695.945 103 99 101
-1019.884 -492.006 1698.428 94 87 90
-1038.099 -503.808 1739.170 95 84 88
-1036.512 -506.085 1747.028 91 79 84
-1054.119 -520.993 1798.491 82 74 75
-1036.408 -515.399 1779.182 79 72 73
-1055.927 -528.365 1823.941 70 66 66
-1052.683 -530.032 1829.695 58 56 55
-1054.423 -534.245 1844.239 45 45 45
-1054.502 -537.664 1856.043 36 36 36
-1047.832 -537.664 1856.043 42 42 42
-1034.541 -534.245 1844.239 50 50 50
-226.906 -169.205 584.102 49 49 49
-224.581 -169.034 583.514 47 49 49
-221.703 -168.441 581.467 47 47 47
-219.174 -168.104 580.303 48 48 48
-216.655 -167.768 579.145 47 47 47
-211.512 -165.374 570.879 47 47 47
-209.460 -165.374 570.879 49 49 49
-219.508 -175.021 604.181 49 47 46
-217.337 -175.021 604.181 43 46 41
-215.166 -175.021 604.181 43 44 37
-204.023 -169.375 584.691 68 45 41
-201.820 -169.290 584.396 137 107 93
-199.720 -169.290 584.396 186 149 126
-197.024 -168.780 582.635 184 152 125
-193.956 -167.936 579.723 176 146 118
-188.946 -165.374 570.879 174 137 104
-186.894 -165.374 570.879 171 134 101
-184.843 -165.374 570.879 170 133 100
-182.791 -165.374 570.879 168 131 98
-184.770 -175.021 604.181 175 138 105
-182.599 -175.021 604.181 179 142 111
-180.428 -175.021 604.181 179 142 111
-293.275 -287.952 994.025 175 138 107
-286.755 -285.021 983.907 177 140 109
-290.109 -291.955 1007.842 180 143 112
-285.495 -290.944 1004.352 187 151 121
-278.748 -287.706 993.173 188 152 122
-278.036 -290.692 1003.483 191 155 125
-270.914 -286.969 990.629 196 160 130
-156.545 -175.021 604.181 218 180 155
-154.374 -175.021 604.181 217 180 153
-150.032 -175.021 604.181 220 187 155
-125.351 -165.374 570.879 164 126 89
-123.299 -165.374 570.879 169 127 91
-121.248 -165.374 570.879 182 137 102
-119.196 -165.374 570.879 187 142 107
-117.145 -165.374 570.879 193 147 120
-115.093 -165.374 570.879 187 142 120
-113.042 -165.374 570.879 189 147 129
-110.990 -165.374 570.879 206 165 151
-108.939 -165.374 570.879 226 183 178
-113.122 -175.021 604.181 234 188 184
-110.951 -175.021 604.181 239 189 186
-108.780 -175.021 604.181 241 189 187
-106.609 -175.021 604.181 237 192 184
-84.898 -175.021 604.181 78 76 77
-82.727 -175.021 604.181 78 76 77
272.335 -536.805 1853.078 90 82 87
284.911 -548.190 1892.376 90 83 86
207.031 -371.726 1283.215 89 82 85
102.362 -165.374 570.879 251 250 252
104.413 -165.374 570.879 249 249 249
108.516 -165.374 570.879 249 249 249
110.568 -165.374 570.879 249 249 249
278.041 -362.112 1250.029 249 249 249
282.533 -362.112 1250.029 249 249 249
285.487 -360.172 1243.330 249 249 249
289.955 -360.172 1243.330 249 249 249
294.423 -360.172 1243.330 249 249 249
299.855 -361.334 1247.340 249 249 249
304.993 -362.112 1250.029 247 244 247
309.152 -361.722 1248.683 177 174 177
314.316 -362.503 1251.377 91 88 91
323.658 -362.894 1252.729 87 85 86
351.048 -363.287 1254.083 80 78 79
-709.212 -241.186 843.043 35 33 34
-654.789 -223.633 781.689 35 33 34
-455.636 -163.323 570.879 38 27 23
-453.584 -163.323 570.879 31 24 23
-451.533 -163.323 570.879 26 24 23
-449.482 -163.323 570.879 25 25 23
-447.430 -163.323 570.879 27 27 25
-451.601 -165.605 578.856 25 25 23
-443.327 -163.323 570.879 24 24 22
-441.276 -163.323 570.879 25 25 23
-439.224 -163.323 570.879 23 23 23
-437.173 -163.323 570.879 23 23 23
-435.121 -163.323 570.879 24 24 24
-433.070 -163.323 570.879 25 25 25
-438.573 -166.185 580.885 27 27 27
-431.729 -164.374 574.555 31 29 30
-433.096 -165.687 579.145 35 33 34
-430.800 -165.605 578.856 36 34 35
-428.720 -165.605 578.856 39 37 38
-427.921 -166.102 580.594 38 36 35
-418.710 -163.323 570.879 39 37 34
-440.963 -172.850 604.181 39 37 38
-1217.458 -479.583 1676.339 39 36 39
-1207.943 -478.201 1671.508 52 49 54
-1184.863 -471.409 1647.765 75 66 76
-1159.183 -463.508 1620.149 101 92 102
-1151.752 -462.861 1617.889 113 104 114
-1142.751 -461.574 1613.389 118 109 120
-1143.314 -464.156 1622.415 121 112 122
-1143.883 -466.767 1631.542 117 113 121
-1138.020 -466.767 1631.542 117 113 121
-1133.752 -467.425 1633.840 119 115 123
-1127.880 -467.425 1633.840 121 117 125
-1107.965 -461.574 1613.389 151 149 148
-1099.110 -460.294 1608.913 167 165 166
-1088.798 -458.386 1602.247 106 103 106
-1084.538 -459.020 1604.463 96 92 100
-1089.319 -463.508 1620.149 93 89 97
-1100.402 -470.740 1645.428 94 93 100
-1107.052 -476.143 1664.314 96 94 101
-1109.027 -479.583 1676.339 96 90 99
-1099.824 -478.201 1671.508 98 89 99
-1093.818 -478.201 1671.508 126 117 127
-1078.487 -474.102 1657.181 133 123 133
-1066.438 -471.409 1647.765 127 117 127
-1077.350 -478.891 1673.920 125 115 125
-1069.791 -478.201 1671.508 125 115 125
-1073.062 -482.372 1686.085 125 116 126
-1062.370 -480.277 1678.765 124 115 125
-1073.426 -488.046 1705.921 124 115 125
-1059.505 -484.484 1693.470 130 121 131
-1048.826 -482.372 1686.085 132 125 133
-1050.401 -485.903 1698.428 107 104 107
-1038.217 -483.074 1688.539 92 89 92
-1038.194 -485.903 1698.428 89 86 89
-1030.582 -485.192 1695.945 104 101 104
-1022.992 -484.484 1693.470 106 99 102
-1018.393 -485.192 1695.945 97 90 93
-1044.362 -500.561 1749.663 92 85 88
-1039.643 -501.317 1752.306 84 77 80
-1057.303 -512.939 1792.931 68 61 64
-1050.860 -512.939 1792.931 65 58 61
-1059.150 -520.175 1818.224 78 70 73
-1065.983 -526.780 1841.312 85 72 77
-1064.435 -529.301 1850.122 83 70 75
-1064.578 -532.699 1862.001 68 61 64
-1066.446 -537.009 1877.066 52 45 48
-1057.989 -536.142 1874.033 40 38 39
-1049.559 -535.277 1871.011 39 39 39
-1041.156 -534.415 1867.998 48 50 49
-1032.780 -533.556 1864.995 59 59 59
-1022.790 -531.846 1859.017 67 64 67
-1016.109 -531.846 1859.017 73 64 74
-1007.814 -530.995 1856.043 75 66 76
-996.362 -528.458 1847.176 74 65 75
-994.474 -530.995 1856.043 75 66 76
-983.086 -528.458 1847.176 72 63 73
-982.707 -531.846 1859.017 70 61 71
-977.594 -532.699 1862.001 68 62 68
-969.347 -531.846 1859.017 67 64 67
-962.666 -531.846 1859.017 67 64 67
-949.305 -531.846 1859.017 65 62 65
-942.625 -531.846 1859.017 65 62 64
-935.945 -531.846 1859.017 62 59 61
-930.756 -532.699 1862.001 62 58 60
-232.027 -163.323 570.879 52 52 52
-229.975 -163.323 570.879 50 50 50
-227.924 -163.323 570.879 50 50 50
-225.872 -163.323 570.879 49 49 49
-226.906 -167.106 584.102 49 49 49
-217.666 -163.323 570.879 49 49 49
-215.615 -163.323 570.879 49 49 49
-213.563 -163.323 570.879 49 49 49
-211.512 -163.323 570.879 49 49 49
-221.679 -172.850 604.181 49 49 49
-219.508 -172.850 604.181 51 49 48
-217.337 -172.850 604.181 49 53 48
-215.166 -172.850 604.181 51 52 45
-212.994 -172.850 604.181 57 50 43
-216.229 -177.282 619.672 106 83 76
-211.405 -175.130 612.151 167 137 120
-197.620 -167.190 584.396 180 149 117
-192.513 -164.619 575.410 171 142 110
-188.946 -163.323 570.879 168 131 98
-186.894 -163.323 570.879 168 131 98
-184.843 -163.323 570.879 167 130 97
-182.791 -163.323 570.879 162 125 92
-180.740 -163.323 570.879 160 123 90
-187.259 -171.156 598.260 162 125 92
-185.014 -171.068 597.952 167 130 97
-182.599 -172.850 604.181 175 138 106
-180.428 -172.850 604.181 172 135 104
-296.579 -287.584 1005.222 166 129 98
-289.455 -284.137 993.173 167 130 99
-292.395 -290.606 1015.785 166 129 98
-286.736 -288.584 1008.719 170 129 101
-282.130 -287.584 1005.222 173 132 104
-279.001 -288.083 1006.968 180 139 110
-272.310 -284.868 995.731 191 149 121
-272.000 -288.333 1007.842 200 162 137
-268.846 -288.835 1009.597 207 169 144
-158.716 -172.850 604.181 210 172 147
-156.545 -172.850 604.181 212 174 149
-154.374 -172.850 604.181 213 176 150
-150.032 -172.850 604.181 216 183 151
-130.492 -172.850 604.181 173 131 96
-128.320 -172.850 604.181 167 122 87
-117.145 -163.323 570.879 177 131 104
-115.093 -163.323 570.879 178 133 111
-113.042 -163.323 570.879 184 142 124
-113.122 -172.850 604.181 215 174 168
-110.951 -172.850 604.181 231 188 183
-108.780 -172.850 604.181 248 202 198
-106.609 -172.850 604.181 251 205 196
-97.925 -172.850 604.181 249 245 242
-84.898 -172.850 604.181 78 76 77
-82.727 -172.850 604.181 78 76 77
67.487 -163.323 570.879 88 87 89
69.538 -163.323 570.879 88 85 88
224.717 -472.079 1650.109 87 84 87
247.549 -506.674 1771.033 88 85 88
251.229 -501.317 1752.306 85 82 85
102.362 -163.323 570.879 252 251 253
104.413 -163.323 570.879 249 249 249
106.465 -163.323 570.879 249 249 249
108.516 -163.323 570.879 249 249 249
110.568 -163.323 570.879 249 249 249
130.044 -172.850 604.181 249 249 249
132.215 -172.850 604.181 249 249 249
134.386 -172.850 604.181 249 249 249
136.558 -172.850 604.181 248 248 248
138.729 -172.850 604.181 248 248 248
140.900 -172.850 604.181 248 248 248
143.071 -172.850 604.181 249 249 249
366.219 -411.241 1437.456 87 85 95
369.098 -408.709 1428.604 90 86 97
372.397 -406.705 1421.601 80 76 87
377.506 -406.705 1421.601 77 73 84
382.614 -406.705 1421.601 73 69 80
385.362 -404.229 1412.943 74 70 78
400.188 -414.322 1448.223 71 67 75
394.077 -402.757 1407.799 93 89 97
354.405 -357.620 1250.029 132 128 136
173.467 -172.850 604.181 169 166 169
175.638 -172.850 604.181 196 193 196
177.809 -172.850 604.181 223 220 223
179.980 -172.850 604.181 240 237 240
182.151 -172.850 604.181 253 250 253
184.322 -172.850 604.181 254 251 254
186.494 -172.850 604.181 252 249 252
188.665 -172.850 604.181 250 247 250
-709.212 -238.156 843.043 35 33 34
-656.558 -221.421 783.802 34 32 33
-570.953 -195.061 690.492 32 30 31
-455.636 -161.271 570.879 40 29 26
-453.584 -161.271 570.879 32 25 24
-451.533 -161.271 570.879 27 25 24
-449.482 -161.271 570.879 26 26 24
-447.430 -161.271 570.879 27 27 25
-452.279 -163.770 579.723 26 26 24
-443.327 -161.271 570.879 25 25 23
-441.276 -161.271 570.879 24 24 22
-439.224 -161.271 570.879 23 23 23
-437.173 -161.271 570.879 23 23 23
-435.121 -161.271 570.879 23 23 23
-446.699 -166.347 588.846 25 25 25
-439.894 -164.592 582.635 27 27 27
-431.943 -162.390 574.840 32 30 31
-433.746 -163.852 580.013 37 35 36
-431.231 -163.688 579.434 39 37 38
-428.720 -163.524 578.856 42 40 41
-428.135 -164.098 580.885 39 37 36
-418.710 -161.271 570.879 36 34 31
-440.963 -170.679 604.181 36 34 35
-1217.458 -473.559 1676.339 40 37 40
-1207.943 -472.195 1671.508 52 49 54
-1184.863 -465.487 1647.765 75 66 76
-1159.183 -457.686 1620.149 98 89 99
-1151.752 -457.047 1617.889 109 100 110
-1144.343 -456.411 1615.636 114 105 115
-1146.521 -459.612 1626.966 115 106 116
-1148.730 -462.857 1638.456 116 112 120
-1139.623 -461.554 1633.840 116 112 120
-1135.351 -462.205 1636.145 114 110 118
-1129.471 -462.205 1636.145 112 108 116
-1109.508 -456.411 1615.636 107 105 104
-1100.636 -455.143 1611.148 100 98 99
-1093.328 -454.512 1608.913 93 90 93
-1087.546 -454.512 1608.913 84 80 88
-1090.842 -458.326 1622.415 87 83 91
-1098.844 -464.169 1643.097 85 84 91
-1102.307 -468.147 1657.181 83 81 88
-1105.831 -472.195 1671.508 81 75 84
-1098.242 -471.515 1669.103 95 86 96
-1093.818 -472.195 1671.508 120 111 121
-1076.948 -467.479 1654.817 127 117 127
-1066.438 -465.487 1647.765 126 116 126
-1077.350 -472.876 1673.920 123 113 123
-1069.791 -472.195 1671.508 125 115 125
-1073.062 -476.313 1686.085 123 114 124
-1060.835 -473.559 1676.339 125 116 126
-1068.711 -479.799 1698.428 126 117 127
-1057.960 -477.701 1691.001 130 121 131
-1048.826 -476.313 1686.085 131 123 132
-1048.865 -479.098 1695.945 107 104 107
-1038.217 -477.006 1688.539 92 89 92
-1036.676 -479.098 1695.945 87 84 87
-1027.577 -477.701 1691.001 103 100 103
-1021.501 -477.701 1691.001 103 96 99
-1016.906 -478.399 1693.470 94 87 90
-1045.940 -495.020 1752.306 89 82 85
-1041.216 -495.769 1754.957 81 74 77
-1063.880 -509.647 1804.085 54 48 51
-1055.756 -508.856 1801.284 48 47 48
-1050.914 -509.647 1804.085 74 71 72
-1065.983 -520.164 1841.312 88 81 84
-1064.435 -522.652 1850.122 92 84 87
-1064.578 -526.008 1862.001 84 77 80
-1066.446 -530.264 1877.066 71 64 67
-1059.701 -530.264 1877.066 54 52 53
-1049.559 -528.553 1871.011 45 45 45
-1044.520 -529.407 1874.033 38 40 40
-1036.112 -528.553 1871.011 49 49 49
-1024.432 -526.008 1862.001 62 59 62
-1016.109 -525.165 1859.017 76 67 77
-1006.204 -523.487 1853.078 81 72 82
-991.625 -519.339 1838.394 83 74 84
-992.886 -523.487 1853.078 84 75 85
-978.412 -519.339 1838.394 81 72 82
-981.135 -524.325 1856.043 83 74 84
-976.027 -525.165 1859.017 81 74 81
-967.796 -524.325 1856.043 78 75 78
-961.126 -524.325 1856.043 78 75 78
-954.456 -524.325 1856.043 75 72 75
-947.786 -524.325 1856.043 76 73 76
-941.117 -524.325 1856.043 80 70 80
-934.447 -524.325 1856.043 77 67 77
-927.777 -524.325 1856.043 78 67 78
-238.181 -161.271 570.879 53 53 53
-236.129 -161.271 570.879 53 53 53
-234.078 -161.271 570.879 53 53 53
-232.027 -161.271 570.879 53 53 53
-229.975 -161.271 570.879 52 52 52
-227.924 -161.271 570.879 52 52 52
-225.872 -161.271 570.879 50 50 50
-223.821 -161.271 570.879 50 50 50
-221.769 -161.271 570.879 49 49 49
-219.718 -161.271 570.879 49 49 49
-217.666 -161.271 570.879 50 50 50
-215.615 -161.271 570.879 50 50 50
-213.563 -161.271 570.879 50 50 50
-211.512 -161.271 570.879 51 51 51
-221.679 -170.679 604.181 49 49 49
-219.508 -170.679 604.181 51 49 49
-217.337 -170.679 604.181 46 48 46
-215.166 -170.679 604.181 53 53 48
-210.823 -170.679 604.181 148 121 106
-208.652 -170.679 604.181 166 135 113
-197.321 -164.841 583.514 176 145 111
-194.053 -163.852 580.013 171 141 106
-188.946 -161.271 570.879 167 136 101
-186.894 -161.271 570.879 169 135 101
-184.843 -161.271 570.879 169 133 100
-182.791 -161.271 570.879 159 122 89
-180.740 -161.271 570.879 155 118 87
-184.770 -170.679 604.181 166 129 98
-182.599 -170.679 604.181 170 133 103
-180.428 -170.679 604.181 165 128 98
-178.256 -170.679 604.181 157 120 90
-316.558 -306.838 1086.167 153 116 86
-290.270 -288.471 1021.150 150 105 83
-279.730 -285.207 1009.597 165 120 98
-272.310 -281.290 995.731 173 128 106
-261.329 -273.542 968.303 182 146 115
-270.968 -287.459 1017.567 190 154 123
-158.716 -170.679 604.181 198 162 131
-156.545 -170.679 604.181 203 167 136
-154.374 -170.679 604.181 205 168 138
-152.203 -170.679 604.181 209 172 142
-203.433 -231.429 819.228 212 175 145
-199.083 -229.806 813.483 212 175 145
-130.492 -170.679 604.181 200 161 131
-128.320 -170.679 604.181 183 141 112
-126.149 -170.679 604.181 162 118 90
-123.978 -170.679 604.181 154 110 80
-121.807 -170.679 604.181 167 118 94
-113.122 -170.679 604.181 196 154 143
-110.951 -170.679 604.181 203 161 149
-108.780 -170.679 604.181 218 176 165
-106.609 -170.679 604.181 230 192 173
-104.438 -170.679 604.181 236 199 176
-100.096 -170.679 604.181 245 225 220
-97.925 -170.679 604.181 252 246 242
-95.753 -170.679 604.181 248 248 248
-84.898 -170.679 604.181 81 74 75
-82.727 -170.679 604.181 80 73 74
159.694 -484.768 1716.016 249 249 249
164.885 -481.916 1705.921 246 246 246
65.435 -161.271 570.879 88 87 89
67.487 -161.271 570.879 88 87 89
69.538 -161.271 570.879 90 87 90
71.590 -161.271 570.879 90 87 90
82.279 -170.679 604.181 89 86 89
84.450 -170.679 604.181 87 84 87
88.793 -170.679 604.181 87 84 87
101.819 -170.679 604.181 85 84 86
106.162 -170.679 604.181 250 249 251
143.071 -170.679 604.181 248 248 248
162.611 -170.679 604.181 244 241 247
164.782 -170.679 604.181 251 248 251
166.953 -170.679 604.181 253 250 254
169.125 -170.679 604.181 249 246 249
171.296 -170.679 604.181 250 247 250
173.467 -170.679 604.181 250 247 250
175.638 -170.679 604.181 251 248 251
-709.212 -235.127 843.043 35 33 33
-659.679 -219.643 787.527 33 31 31
-570.274 -192.351 689.671 34 32 33
-455.636 -159.220 570.879 43 32 29
-453.584 -159.220 570.879 33 26 25
-451.533 -159.220 570.879 29 27 26
-449.482 -159.220 570.879 27 27 25
-447.430 -159.220 570.879 29 29 27
-453.412 -162.091 581.176 28 28 26
-445.299 -159.928 573.419 26 26 24
-441.276 -159.220 570.879 23 23 21
-439.224 -159.220 570.879 23 23 23
-437.173 -159.220 570.879 23 23 23
-435.121 -159.220 570.879 23 23 23
-440.660 -162.010 580.885 25 25 25
-440.558 -162.744 583.514 27 27 27
-440.901 -163.649 586.761 28 26 27
-434.180 -161.929 580.594 33 31 32
-431.662 -161.767 580.013 36 34 35
-429.578 -161.767 580.013 39 37 38
-427.493 -161.767 580.013 39 37 36
-1230.595 -470.254 1686.085 39 37 38
-1219.220 -468.212 1678.765 41 38 41
-1209.686 -466.861 1673.920 53 50 54
-1184.863 -459.566 1647.765 74 65 75
-1157.566 -451.234 1617.889 97 88 98
-1150.148 -450.605 1615.636 106 97 107
-1141.164 -449.353 1611.148 109 100 110
-1140.125 -451.234 1617.889 109 100 110
-1145.494 -455.682 1633.840 108 104 112
-1139.623 -455.682 1633.840 108 104 112
-1132.157 -455.041 1631.542 109 105 113
-1127.880 -455.682 1633.840 111 107 115
-1107.965 -449.978 1613.389 119 117 119
-1100.636 -449.353 1611.148 109 107 110
-1091.814 -448.109 1606.685 100 97 101
-1086.040 -448.109 1606.685 92 88 96
-1086.284 -450.605 1615.636 86 82 90
-1097.290 -457.616 1640.773 78 74 82
-1108.642 -464.848 1666.705 79 74 82
-1109.027 -467.535 1676.339 89 82 91
-1099.824 -466.188 1671.508 104 95 105
-1093.818 -466.188 1671.508 119 110 120
-1076.948 -461.533 1654.817 121 112 122
-1066.438 -459.566 1647.765 123 113 123
-1077.350 -466.861 1673.920 120 110 120
-1068.252 -465.517 1669.103 122 113 123
-1071.504 -469.571 1683.638 123 114 124
-1062.370 -468.212 1678.765 126 117 127
-1067.148 -473.004 1695.945 128 119 129
-1056.420 -470.938 1688.539 130 121 131
-1047.304 -469.571 1683.638 129 120 130
-1047.334 -472.313 1693.470 108 101 106
-1036.708 -470.254 1686.085 93 89 93
-1033.654 -471.625 1691.001 86 84 86
-1024.590 -470.254 1686.085 98 97 99
-1018.531 -470.254 1686.085 100 97 98
-1012.472 -470.254 1686.085 90 87 89
-1047.522 -489.462 1754.957 86 83 85
-1042.793 -490.204 1757.616 87 85 86
-1073.901 -507.903 1821.078 71 69 70
-1062.354 -505.523 1812.542 52 49 52
-1060.813 -507.903 1821.078 70 67 70
-1064.294 -512.733 1838.394 92 89 92
-1067.841 -517.655 1856.043 97 94 97
-1068.007 -520.989 1867.998 97 94 97
-1075.145 -527.789 1892.376 79 76 79
-1068.344 -527.789 1892.376 71 68 71
-1058.092 -526.072 1886.222 60 57 60
-1056.467 -528.651 1895.468 53 50 52
-1047.944 -527.789 1892.376 42 40 41
-1037.757 -526.072 1886.222 48 45 50
-1024.317 -522.673 1874.033 58 54 65
-1009.429 -518.485 1859.017 71 67 80
-993.199 -513.547 1841.312 76 72 83
-996.068 -518.485 1859.017 79 75 86
-989.388 -518.485 1859.017 79 75 86
-985.867 -520.152 1864.995 80 76 87
-980.742 -520.989 1867.998 83 77 87
-972.463 -520.152 1864.995 84 75 85
-965.762 -520.152 1864.995 83 74 84
-959.060 -520.152 1864.995 83 74 84
-952.358 -520.152 1864.995 84 75 85
-945.656 -520.152 1864.995 83 79 89
-938.954 -520.152 1864.995 83 79 89
-240.232 -159.220 570.879 54 52 53
-238.181 -159.220 570.879 55 53 54
-236.129 -159.220 570.879 55 53 54
-234.078 -159.220 570.879 54 52 53
-232.027 -159.220 570.879 53 51 52
-229.975 -159.220 570.879 49 47 48
-227.924 -159.220 570.879 49 47 48
-225.872 -159.220 570.879 50 48 49
-223.821 -159.220 570.879 52 50 51
-221.769 -159.220 570.879 52 50 51
-219.718 -159.220 570.879 52 50 51
-217.666 -159.220 570.879 52 50 51
-215.615 -159.220 570.879 54 52 53
-213.563 -159.220 570.879 52 50 51
-223.850 -168.508 604.181 53 51 52
-221.679 -168.508 604.181 54 52 53
-219.508 -168.508 604.181 50 49 51
-210.823 -168.508 604.181 167 134 115
-208.652 -168.508 604.181 171 138 115
-190.997 -159.220 570.879 172 142 107
-188.946 -159.220 570.879 171 142 107
-186.894 -159.220 570.879 179 146 112
-184.843 -159.220 570.879 179 143 110
-182.791 -159.220 570.879 163 126 93
-180.740 -159.220 570.879 156 119 88
-178.689 -159.220 570.879 159 122 91
-176.637 -159.220 570.879 161 124 93
-184.770 -168.508 604.181 161 124 93
-182.599 -168.508 604.181 163 126 96
-333.097 -311.091 1115.410 160 123 93
-333.905 -315.643 1131.733 153 116 86
-319.852 -306.087 1097.471 143 106 76
-309.754 -300.125 1076.091 134 97 67
-297.605 -291.999 1046.955 129 89 65
-302.020 -300.125 1076.091 128 88 64
-269.305 -274.647 984.742 144 104 80
-163.058 -168.508 604.181 155 116 86
-160.887 -168.508 604.181 166 126 97
-226.401 -240.367 861.833 177 137 108
-204.589 -229.783 823.883 198 161 131
-119.196 -159.220 570.879 192 148 120
-117.145 -159.220 570.879 156 112 82
-115.093 -159.220 570.879 142 93 70
-113.042 -159.220 570.879 159 107 91
-110.990 -159.220 570.879 184 130 117
-108.939 -159.220 570.879 192 151 134
-106.887 -159.220 570.879 195 154 138
-110.951 -168.508 604.181 191 150 134
-108.780 -168.508 604.181 194 153 136
-106.609 -168.508 604.181 204 166 145
-104.438 -168.508 604.181 211 174 152
-97.925 -168.508 604.181 250 244 240
-84.898 -168.508 604.181 79 72 73
-82.727 -168.508 604.181 78 71 72
24.576 -160.324 574.840 249 249 249
26.589 -160.007 573.703 249 249 249
28.509 -159.220 570.879 249 249 249
30.561 -159.220 570.879 249 249 249
32.612 -159.220 570.879 249 249 249
155.427 -674.030 2416.722 249 249 249
127.800 -498.512 1787.406 249 249 249
160.645 -481.450 1726.230 249 249 249
164.402 -474.391 1700.919 248 248 248
63.384 -159.220 570.879 87 86 88
65.435 -159.220 570.879 87 86 88
67.487 -159.220 570.879 87 86 88
69.538 -159.220 570.879 89 85 91
71.590 -159.220 570.879 88 84 90
73.641 -159.220 570.879 86 82 88
80.108 -168.508 604.181 88 84 90
84.450 -168.508 604.181 87 84 85
90.964 -168.508 604.181 89 87 88
93.135 -168.508 604.181 85 84 84
95.306 -168.508 604.181 85 84 84
97.477 -168.508 604.181 83 82 82
101.819 -168.508 604.181 81 84 88
103.991 -168.508 604.181 106 106 111
106.162 -168.508 604.181 251 250 252
138.729 -168.508 604.181 229 233 233
140.900 -168.508 604.181 220 224 224
143.071 -168.508 604.181 192 196 196
145.242 -168.508 604.181 172 175 175
147.413 -168.508 604.181 129 132 133
-709.212 -232.097 843.043 33 31 30
-658.784 -216.519 786.459 33 31 30
-569.597 -189.647 688.852 32 30 29
-551.045 -185.894 675.219 34 32 31
-455.636 -157.168 570.879 46 33 31
-453.584 -157.168 570.879 42 29 27
-451.533 -157.168 570.879 30 28 23
-449.482 -157.168 570.879 28 27 23
-447.430 -157.168 570.879 29 27 26
-453.412 -160.003 581.176 29 27 26
-445.299 -157.867 573.419 29 27 26
-441.276 -157.168 570.879 26 24 23
-439.224 -157.168 570.879 23 23 23
-437.173 -157.168 570.879 20 20 20
-435.121 -157.168 570.879 22 22 22
-446.246 -161.950 588.249 22 22 22
-440.558 -160.647 583.514 23 23 23
-440.678 -161.459 586.464 22 20 21
-434.398 -159.923 580.885 26 24 25
-431.878 -159.763 580.303 33 31 32
-434.795 -161.622 587.058 36 34 35
-427.493 -159.683 580.013 39 37 38
-440.963 -166.336 604.181 41 39 40
-1220.987 -462.849 1681.198 42 40 41
-1209.686 -460.845 1673.920 50 48 49
-1184.863 -453.645 1647.765 71 62 72
-1159.183 -446.042 1620.149 94 85 95
-1151.752 -445.420 1617.889 103 94 104
-1142.751 -444.181 1613.389 106 97 107
-1148.131 -448.548 1629.251 108 99 109
-1153.618 -453.001 1645.428 104 100 108
-1144.459 -451.720 1640.773 104 100 108
-1138.562 -451.720 1640.773 106 102 110
-1131.067 -451.082 1638.456 108 104 112
-1111.055 -445.420 1617.889 109 105 113
-1100.636 -443.564 1611.148 112 108 116
-1094.846 -443.564 1611.148 111 107 115
-1089.057 -443.564 1611.148 108 104 112
-1089.319 -446.042 1620.149 102 98 106
-1098.844 -452.360 1643.097 101 92 102
-1100.735 -455.586 1654.817 103 94 104
-1105.831 -460.181 1671.508 110 101 111
-1095.090 -458.201 1664.314 116 107 117
-1092.244 -459.519 1669.103 120 111 121
-1075.414 -454.937 1652.460 120 111 121
-1066.438 -453.645 1647.765 120 111 121
-1071.167 -458.201 1664.314 118 109 119
-1056.095 -454.290 1650.109 119 110 120
-1066.859 -461.511 1676.339 121 112 122
-1059.304 -460.845 1673.920 124 115 125
-1068.711 -467.593 1698.428 122 113 123
-1054.885 -464.195 1686.085 128 119 129
-1044.272 -462.179 1678.765 130 121 131
-1044.285 -464.870 1688.539 108 100 105
-1033.703 -462.849 1681.198 94 89 93
-1030.649 -464.195 1686.085 86 84 86
-1021.620 -462.849 1681.198 97 97 99
-1014.109 -462.179 1678.765 98 96 97
-1005.167 -460.845 1673.920 93 91 92
-1045.940 -482.426 1752.306 95 93 94
-1044.376 -484.622 1760.283 101 99 100
-1087.560 -507.736 1844.239 99 97 98
-1079.217 -506.930 1841.312 82 79 82
-1076.016 -508.544 1847.176 85 82 85
-1072.795 -510.169 1853.078 101 98 101
-1074.720 -514.277 1867.998 101 98 101
-1069.729 -515.106 1871.011 99 96 99
-1075.145 -520.988 1892.376 83 80 83
-1068.344 -520.988 1892.376 54 51 54
-1059.815 -520.140 1889.294 66 63 66
-1061.672 -524.410 1904.806 65 62 66
-1054.827 -524.410 1904.806 53 49 57
-1046.264 -523.551 1901.683 41 37 45
-1034.343 -520.988 1892.376 45 41 47
-1015.941 -515.106 1871.011 56 53 58
-1002.749 -511.804 1859.017 71 68 73
-999.271 -513.450 1864.995 78 75 80
-994.167 -514.277 1867.998 76 73 78
-990.645 -515.938 1874.033 77 74 79
-983.911 -515.938 1874.033 78 75 81
-977.177 -515.938 1874.033 77 74 82
-970.442 -515.938 1874.033 78 75 83
-962.153 -515.106 1871.011 79 75 83
-955.430 -515.106 1871.011 79 76 83
-948.706 -515.106 1871.011 80 76 86
-941.983 -515.106 1871.011 80 76 86
-240.232 -157.168 570.879 54 52 53
-238.181 -157.168 570.879 53 51 52
-236.129 -157.168 570.879 52 50 51
-234.078 -157.168 570.879 51 49 50
-232.027 -157.168 570.879 50 48 49
-229.975 -157.168 570.879 46 44 45
-227.924 -157.168 570.879 42 40 41
-225.872 -157.168 570.879 45 43 44
-223.821 -157.168 570.879 47 45 46
-221.769 -157.168 570.879 49 47 48
-219.718 -157.168 570.879 49 47 48
-217.666 -157.168 570.879 49 47 48
-215.615 -157.168 570.879 51 49 50
-213.563 -157.168 570.879 49 47 48
-223.850 -166.336 604.181 50 48 49
-221.679 -166.336 604.181 51 49 50
-212.994 -166.336 604.181 69 57 49
-210.823 -166.336 604.181 163 130 111
-208.652 -166.336 604.181 164 131 108
-206.481 -166.336 604.181 173 141 113
-204.310 -166.336 604.181 173 142 108
-202.139 -166.336 604.181 173 142 107
-199.968 -166.336 604.181 173 144 109
-197.797 -166.336 604.181 178 145 111
-195.625 -166.336 604.181 171 135 103
-193.454 -166.336 604.181 160 123 90
-191.283 -166.336 604.181 158 121 90
-189.112 -166.336 604.181 158 121 91
-186.941 -166.336 604.181 158 121 90
-416.377 -379.294 1377.704 154 119 89
-180.428 -166.336 604.181 152 116 88
-178.256 -166.336 604.181 145 110 83
-176.085 -166.336 604.181 129 94 69
-173.914 -166.336 604.181 117 81 58
-299.520 -293.805 1067.182 108 72 50
-167.401 -166.336 604.181 105 70 46
-165.230 -166.336 604.181 94 60 32
-163.058 -166.336 604.181 125 83 55
-160.887 -166.336 604.181 128 86 58
-226.737 -237.623 863.115 129 87 59
-221.820 -235.694 856.108 147 105 77
-216.982 -233.796 849.214 157 115 87
-147.861 -166.336 604.181 187 145 116
-119.196 -157.168 570.879 199 162 131
-117.145 -157.168 570.879 192 146 118
-121.807 -166.336 604.181 158 109 87
-119.636 -166.336 604.181 138 85 70
-117.465 -166.336 604.181 156 102 90
-115.294 -166.336 604.181 180 130 115
-113.122 -166.336 604.181 203 153 136
-110.951 -166.336 604.181 204 159 139
-108.780 -166.336 604.181 197 154 129
-106.609 -166.336 604.181 201 158 135
-104.438 -166.336 604.181 196 153 137
-102.267 -166.336 604.181 188 157 148
-100.096 -166.336 604.181 226 210 208
-97.925 -166.336 604.181 253 246 249
-95.753 -166.336 604.181 249 249 249
-84.898 -166.336 604.181 76 74 75
26.458 -157.168 570.879 249 249 249
28.509 -157.168 570.879 249 249 249
30.561 -157.168 570.879 249 249 249
32.612 -157.168 570.879 249 249 249
140.564 -415.841 1510.451 249 249 249
63.384 -157.168 570.879 85 84 86
65.435 -157.168 570.879 86 85 87
67.487 -157.168 570.879 87 86 88
73.595 -166.336 604.181 86 82 90
75.766 -166.336 604.181 86 82 90
77.937 -166.336 604.181 87 83 91
80.108 -166.336 604.181 88 84 92
82.279 -166.336 604.181 89 86 90
84.450 -166.336 604.181 88 85 88
86.622 -166.336 604.181 90 87 90
88.793 -166.336 604.181 91 88 92
90.964 -166.336 604.181 84 83 86
93.135 -166.336 604.181 86 85 88
95.306 -166.336 604.181 87 86 89
97.477 -166.336 604.181 86 85 88
99.648 -166.336 604.181 84 83 86
101.819 -166.336 604.181 80 81 89
103.991 -166.336 604.181 105 106 112
106.162 -166.336 604.181 251 252 254
127.873 -166.336 604.181 137 144 144
130.044 -166.336 604.181 110 117 117
132.215 -166.336 604.181 89 96 96
134.386 -166.336 604.181 78 85 85
136.558 -166.336 604.181 72 77 78
138.729 -166.336 604.181 75 77 79
140.900 -166.336 604.181 79 81 82
143.071 -166.336 604.181 79 82 83
145.242 -166.336 604.181 88 90 92
-709.727 -229.234 843.656 32 30 29
-654.348 -212.254 781.163 31 29 28
-570.953 -187.617 690.492 32 30 29
-551.687 -183.681 676.006 34 32 31
-455.636 -155.117 570.879 54 33 34
-453.584 -155.117 570.879 46 28 28
-451.533 -155.117 570.879 38 30 26
-449.482 -155.117 570.879 33 28 26
-447.430 -155.117 570.879 29 27 26
-453.184 -157.835 580.885 29 27 26
-446.182 -156.116 574.555 30 28 27
-441.276 -155.117 570.879 29 27 26
-439.224 -155.117 570.879 26 26 26
-437.173 -155.117 570.879 21 21 21
-435.121 -155.117 570.879 21 21 21
-445.794 -159.674 587.653 20 20 20
-439.894 -158.311 582.635 22 22 22
-439.567 -158.950 584.986 24 22 23
-434.180 -157.756 580.594 25 23 24
-431.878 -157.678 580.303 25 23 24
-432.171 -158.550 583.514 30 28 29
-427.493 -157.599 580.013 35 33 34
-440.963 -164.165 604.181 42 40 41
-1215.701 -454.830 1673.920 45 43 44
-1207.943 -454.175 1671.508 50 48 49
-1184.863 -447.723 1647.765 70 61 71
-1160.804 -440.835 1622.415 86 77 87
-1153.361 -440.220 1620.149 99 90 100
-1144.343 -438.993 1615.636 102 93 103
-1154.618 -445.194 1638.456 104 95 105
-1153.618 -447.088 1645.428 102 98 106
-1144.459 -445.824 1640.773 102 98 106
-1138.562 -445.824 1640.773 103 99 107
-1129.471 -444.566 1636.145 105 101 109
-1112.607 -440.220 1620.149 107 103 111
-1102.167 -438.383 1613.389 107 103 111
-1094.846 -437.774 1611.148 102 98 106
-1090.571 -438.383 1613.389 103 99 107
-1095.439 -442.693 1629.251 108 104 112
-1098.844 -446.455 1643.097 111 102 112
-1099.167 -448.999 1652.460 112 103 113
-1101.071 -452.220 1664.314 111 102 112
-1090.397 -450.282 1657.181 114 105 115
-1087.549 -451.572 1661.929 117 108 118
-1073.885 -448.360 1650.109 118 109 119
-1066.438 -447.723 1647.765 118 109 119
-1066.577 -450.282 1657.181 116 107 117
-1054.595 -447.723 1647.765 118 109 119
-1056.175 -450.926 1659.552 118 109 119
-1044.236 -448.360 1650.109 121 112 122
-1064.037 -459.471 1691.001 123 114 124
-1050.305 -456.147 1678.765 126 117 127
-1042.763 -455.487 1676.339 124 115 125
-1041.254 -457.471 1683.638 109 101 106
-1030.715 -455.487 1676.339 94 89 93
-1027.662 -456.808 1681.198 86 84 86
-1017.198 -454.830 1673.920 97 96 98
-1011.182 -454.830 1673.920 103 101 102
-997.967 -451.572 1661.929 102 100 101
-1044.362 -475.411 1749.663 111 109 110
-1042.793 -477.572 1757.616 115 113 114
-1094.520 -504.316 1856.043 118 116 117
-1087.850 -504.316 1856.043 110 106 111
-1081.181 -504.316 1856.043 106 102 107
-1076.233 -505.124 1859.017 110 105 110
-1076.453 -508.383 1871.011 106 101 107
-1071.458 -509.204 1874.033 104 99 102
-1073.394 -513.351 1889.294 88 83 87
-1066.604 -513.351 1889.294 56 50 54
-1052.956 -510.028 1877.066 59 54 58
-1058.196 -515.871 1898.571 63 57 62
-1053.097 -516.717 1901.683 64 63 69
-1046.264 -516.717 1901.683 53 53 57
-1036.033 -515.028 1895.468 41 41 44
-1019.229 -510.028 1877.066 41 41 43
-1004.358 -505.935 1862.001 56 52 59
-1002.494 -508.383 1871.011 69 65 72
-994.167 -507.564 1867.998 73 69 77
-990.645 -509.204 1874.033 76 72 80
-982.324 -508.383 1871.011 76 72 80
-969.347 -505.124 1859.017 78 74 82
-959.060 -506.748 1864.995 74 70 78
-950.829 -505.935 1862.001 74 70 78
-944.138 -505.935 1862.001 82 73 83
-937.447 -505.935 1862.001 80 71 81
-929.264 -505.124 1859.017 79 70 80
-234.078 -155.117 570.879 50 48 49
-232.027 -155.117 570.879 49 47 48
-229.975 -155.117 570.879 42 40 41
-227.924 -155.117 570.879 34 32 33
-225.872 -155.117 570.879 36 34 35
-221.769 -155.117 570.879 42 40 41
-219.718 -155.117 570.879 44 42 43
-217.666 -155.117 570.879 43 43 43
-215.615 -155.117 570.879 43 43 43
-213.563 -155.117 570.879 43 43 43
-223.850 -164.165 604.181 43 43 43
-221.679 -164.165 604.181 45 45 45
-330.759 -252.360 928.764 46 42 44
-212.994 -164.165 604.181 57 45 41
-210.823 -164.165 604.181 122 101 84
-208.652 -164.165 604.181 151 122 97
-206.481 -164.165 604.181 167 132 101
-204.310 -164.165 604.181 169 138 105
-202.139 -164.165 604.181 167 139 108
-199.968 -164.165 604.181 167 138 106
-197.797 -164.165 604.181 168 135 104
-195.625 -164.165 604.181 166 130 100
-184.770 -164.165 604.181 152 115 85
-182.599 -164.165 604.181 144 109 81
-180.428 -164.165 604.181 139 105 78
-178.256 -164.165 604.181 131 97 73
-176.085 -164.165 604.181 118 83 61
-173.914 -164.165 604.181 107 72 52
-167.401 -164.165 604.181 95 61 36
-165.230 -164.165 604.181 143 109 81
-163.058 -164.165 604.181 184 142 114
-160.887 -164.165 604.181 189 147 119
-226.737 -234.522 863.115 180 138 110
-220.680 -231.422 851.708 156 114 86
-215.562 -229.234 843.656 139 97 69
-209.935 -226.435 833.352 130 88 59
-205.026 -224.340 825.642 148 106 77
-202.347 -224.660 826.819 159 117 88
-199.822 -228.569 841.209 176 139 108
-119.196 -155.117 570.879 203 166 135
-117.145 -155.117 570.879 198 156 132
-117.228 -157.994 581.467 188 143 125
-119.636 -164.165 604.181 170 123 110
-117.465 -164.165 604.181 162 112 104
-115.294 -164.165 604.181 160 104 91
-113.122 -164.165 604.181 164 110 94
-110.951 -164.165 604.181 183 133 115
-108.780 -164.165 604.181 181 133 110
-102.267 -164.165 604.181 185 159 154
-100.096 -164.165 604.181 229 218 220
-97.925 -164.165 604.181 249 245 253
-95.753 -164.165 604.181 249 249 249
-84.898 -164.165 604.181 76 74 75
-6.366 -155.117 570.879 80 79 81
-4.314 -155.117 570.879 80 79 81
24.406 -155.117 570.879 249 249 249
26.458 -155.117 570.879 249 249 249
28.509 -155.117 570.879 249 249 249
30.561 -155.117 570.879 249 249 249
32.612 -155.117 570.879 249 249 249
34.664 -155.117 570.879 249 249 249
41.028 -164.165 604.181 249 249 249
47.541 -164.165 604.181 249 249 249
54.055 -164.165 604.181 249 249 249
69.253 -164.165 604.181 88 87 89
71.424 -164.165 604.181 88 87 89
73.595 -164.165 604.181 89 85 93
75.766 -164.165 604.181 92 88 96
77.937 -164.165 604.181 87 84 92
80.108 -164.165 604.181 91 87 95
82.279 -164.165 604.181 83 79 87
84.450 -164.165 604.181 82 78 86
86.622 -164.165 604.181 81 77 85
88.793 -164.165 604.181 85 81 89
95.306 -164.165 604.181 143 141 147
97.477 -164.165 604.181 168 166 172
99.648 -164.165 604.181 186 184 191
101.819 -164.165 604.181 216 211 221
103.991 -164.165 604.181 211 211 218
110.504 -164.165 604.181 127 132 137
112.675 -164.165 604.181 91 96 100
405.778 -164.165 604.181 78 67 90
-710.244 -226.367 844.270 35 33 34
-653.029 -209.025 779.588 32 29 32
-593.939 -191.756 715.183 32 30 29
-551.045 -181.041 675.219 32 30 29
-455.636 -153.065 570.879 54 35 36
-453.584 -153.065 570.879 47 28 29
-451.533 -153.065 570.879 36 28 25
-449.482 -153.065 570.879 32 29 24
-450.088 -153.975 574.271 30 29 23
-452.505 -155.514 580.013 29 28 22
-445.740 -153.898 573.986 29 28 22
-441.276 -153.065 570.879 29 28 22
-439.224 -153.065 570.879 28 28 26
-437.173 -153.065 570.879 26 26 24
-435.121 -153.065 570.879 26 26 24
-439.340 -155.281 579.145 23 23 21
-438.134 -155.592 580.303 22 22 20
-432.371 -154.280 575.410 23 23 23
-433.529 -155.437 579.723 22 22 22
-431.015 -155.281 579.145 22 22 22
-427.866 -154.895 577.702 25 25 25
-426.640 -155.204 578.856 28 27 28
-418.710 -153.065 570.879 33 31 32
-440.963 -161.994 604.181 40 38 39
-1215.701 -448.815 1673.920 42 40 41
-1207.943 -448.168 1671.508 49 47 48
-1184.863 -441.802 1647.765 70 62 67
-1162.430 -435.615 1624.687 82 74 79
-1154.974 -435.005 1622.415 91 83 88
-1145.939 -433.792 1617.889 93 85 90
-1157.889 -440.551 1643.097 95 87 92
-1153.618 -441.176 1645.428 92 89 92
-1146.080 -440.551 1643.097 93 90 93
-1138.562 -439.928 1640.773 98 95 98
-1129.471 -438.687 1636.145 102 99 102
-1112.607 -434.398 1620.149 98 98 99
-1102.167 -432.585 1613.389 94 94 94
-1097.896 -433.188 1615.636 91 89 90
-1095.141 -434.398 1620.149 94 87 90
-1100.074 -438.687 1636.145 99 92 95
-1101.965 -441.802 1647.765 98 89 99
-1102.307 -444.327 1657.181 100 91 101
-1105.831 -448.168 1671.508 106 97 107
-1093.521 -445.600 1661.929 110 101 111
-1092.244 -447.523 1669.103 115 106 116
-1075.414 -443.061 1652.460 114 105 115
-1066.438 -441.802 1647.765 116 107 117
-1068.103 -444.962 1659.552 117 108 118
-1056.095 -442.431 1650.109 118 109 119
-1057.688 -445.600 1661.929 119 111 116
-1045.724 -443.061 1652.460 119 111 116
-1060.944 -452.077 1686.085 119 111 116
-1050.305 -450.114 1678.765 125 117 122
-1042.763 -449.464 1676.339 125 117 122
-1039.744 -450.766 1681.198 105 102 105
-1032.207 -450.114 1678.765 94 91 94
-1027.662 -450.766 1681.198 86 83 86
-1018.668 -449.464 1676.339 98 95 98
-1012.644 -449.464 1676.339 110 105 111
-997.967 -445.600 1661.929 111 106 112
-1028.844 -462.153 1723.665 120 115 121
-1038.075 -469.123 1749.663 124 119 125
-1094.520 -497.646 1856.043 124 119 125
-1089.594 -498.444 1859.017 128 119 129
-1082.913 -498.444 1859.017 126 117 127
-1076.233 -498.444 1859.017 125 116 126
-1083.443 -504.917 1883.160 121 112 122
-1073.191 -503.283 1877.066 111 103 108
-1075.145 -507.388 1892.376 93 85 90
-1068.344 -507.388 1892.376 57 49 54
-1052.956 -503.283 1877.066 61 53 58
-1058.196 -509.049 1898.571 68 60 65
-1053.097 -509.883 1901.683 70 67 70
-1047.982 -510.720 1904.806 68 65 68
-1039.430 -509.883 1901.683 60 56 60
-1027.543 -507.388 1892.376 49 45 49
-1009.218 -501.659 1871.011 44 40 48
-1007.369 -504.098 1880.108 58 54 62
-1002.237 -504.917 1883.160 71 67 75
-997.088 -505.738 1886.222 75 71 79
-245.561 -161.994 604.181 47 45 46
-229.975 -153.065 570.879 40 38 39
-229.051 -153.822 573.703 33 31 32
-225.872 -153.065 570.879 31 29 30
-221.769 -153.065 570.879 40 38 39
-219.718 -153.065 570.879 42 40 41
-217.666 -153.065 570.879 40 39 40
-215.615 -153.065 570.879 39 39 39
-213.563 -153.065 570.879 39 39 39
-223.850 -161.994 604.181 39 39 39
-221.679 -161.994 604.181 37 37 37
-219.508 -161.994 604.181 42 38 38
-333.829 -248.823 928.021 40 39 42
-328.132 -247.044 921.387 41 37 39
-320.996 -244.136 910.539 49 37 33
-210.823 -161.994 604.181 97 75 65
-208.652 -161.994 604.181 138 109 89
-652.046 -511.560 1907.939 156 120 94
-184.770 -161.994 604.181 147 110 80
-182.599 -161.994 604.181 137 102 74
-180.428 -161.994 604.181 129 95 68
-178.256 -161.994 604.181 119 85 61
-176.085 -161.994 604.181 107 72 50
-173.914 -161.994 604.181 98 63 43
-171.743 -161.994 604.181 95 60 39
-169.572 -161.994 604.181 109 73 51
-167.401 -161.994 604.181 159 124 99
-165.230 -161.994 604.181 186 150 123
-218.118 -225.710 841.819 209 167 139
-214.781 -225.383 840.599 197 155 127
-208.885 -222.322 829.183 181 139 111
-204.443 -220.744 823.298 159 117 89
-201.485 -220.744 823.298 144 102 73
-198.241 -223.762 834.552 158 115 87
-117.145 -153.065 570.879 199 162 135
-116.295 -154.664 576.841 197 157 137
-113.042 -153.065 570.879 203 160 148
-117.465 -161.994 604.181 213 165 162
-115.294 -161.994 604.181 198 147 138
-113.122 -161.994 604.181 177 120 113
-110.951 -161.994 604.181 155 98 91
-108.780 -161.994 604.181 141 92 82
-102.267 -161.994 604.181 200 176 178
-100.096 -161.994 604.181 236 224 226
-97.925 -161.994 604.181 250 247 242
-95.753 -161.994 604.181 251 251 251
-84.898 -161.994 604.181 75 73 74
-10.469 -153.065 570.879 83 80 83
-8.417 -153.065 570.879 83 80 83
-6.366 -153.065 570.879 82 79 82
-4.314 -153.065 570.879 83 80 83
24.515 -153.746 573.419 249 249 250
26.458 -153.065 570.879 249 249 249
28.509 -153.065 570.879 249 249 249
30.561 -153.065 570.879 249 249 249
32.612 -153.065 570.879 249 249 249
41.028 -161.994 604.181 249 249 249
47.541 -161.994 604.181 249 249 249
51.883 -161.994 604.181 249 249 249
54.055 -161.994 604.181 249 249 249
69.538 -153.065 570.879 113 111 119
75.766 -161.994 604.181 138 136 144
77.937 -161.994 604.181 158 156 164
80.108 -161.994 604.181 189 187 195
82.279 -161.994 604.181 208 205 211
84.450 -161.994 604.181 224 221 227
86.622 -161.994 604.181 237 234 239
88.793 -161.994 604.181 245 242 247
90.964 -161.994 604.181 253 250 253
93.135 -161.994 604.181 253 250 253
95.306 -161.994 604.181 252 249 252
97.477 -161.994 604.181 249 246 249
99.648 -161.994 604.181 249 246 249
101.819 -161.994 604.181 249 246 248
103.991 -161.994 604.181 250 249 251
106.162 -161.994 604.181 147 145 152
108.333 -161.994 604.181 83 84 91
714.013 -339.551 1266.405 78 71 70
405.778 -161.994 604.181 74 63 87
407.949 -161.994 604.181 71 63 70
412.291 -161.994 604.181 66 64 65
-710.244 -223.333 844.270 35 33 34
-653.029 -206.223 779.588 33 30 33
-593.939 -189.186 715.183 33 31 30
-550.724 -178.511 674.826 32 30 29
-455.636 -151.014 570.879 51 33 29
-453.584 -151.014 570.879 42 25 20
-451.533 -151.014 570.879 31 24 16
-449.482 -151.014 570.879 28 25 17
-449.643 -151.761 573.703 28 27 21
-451.827 -153.200 579.145 30 29 23
-445.520 -151.761 573.703 29 28 22
-441.276 -151.014 570.879 29 28 22
