ply
format ascii 1.0
element vertex 1454
property float x
property float y
property float z
property uchar red
property uchar green
property uchar blue
end_header
376.194 -5.374 927.279 208 206 205
619.538 -8.404 1450.033 29 29 25
624.749 -8.404 1450.033 29 29 24
629.960 -8.404 1450.033 28 28 25
635.170 -8.404 1450.033 27 27 26
364.938 -4.207 725.924 26 27 20
367.316 -4.205 725.470 26 27 20
370.155 -4.207 725.924 23 24 17
372.298 -4.202 725.017 29 30 23
374.903 -4.202 725.017 19 19 14
377.508 -4.202 725.017 209 211 198
380.114 -4.202 725.017 206 208 196
385.324 -4.202 725.017 205 204 207
296.472 -3.067 529.209 28 27 28
302.178 -3.067 529.209 24 25 18
304.079 -3.067 529.209 24 25 19
305.981 -3.067 529.209 24 24 22
307.883 -3.067 529.209 25 25 23
309.785 -3.067 529.209 25 25 23
311.686 -3.067 529.209 26 26 24
313.588 -3.067 529.209 25 25 24
315.490 -3.067 529.209 24 24 23
317.391 -3.067 529.209 24 24 23
319.293 -3.067 529.209 24 24 23
321.195 -3.067 529.209 24 25 18
323.097 -3.067 529.209 24 25 18
324.998 -3.067 529.209 24 25 18
326.900 -3.067 529.209 24 25 18
328.802 -3.067 529.209 24 24 20
330.703 -3.067 529.209 23 24 12
332.605 -3.067 529.209 115 118 99
334.507 -3.067 529.209 203 205 192
336.409 -3.067 529.209 204 202 201
338.310 -3.067 529.209 206 204 203
340.212 -3.067 529.209 205 203 202
342.114 -3.067 529.209 205 203 202
344.015 -3.067 529.209 205 204 198
345.917 -3.067 529.209 207 206 200
347.819 -3.067 529.209 206 205 199
349.721 -3.067 529.209 206 205 199
351.622 -3.067 529.209 206 205 199
353.524 -3.067 529.209 205 204 198
355.426 -3.067 529.209 205 204 198
357.328 -3.067 529.209 205 204 198
359.229 -3.067 529.209 205 204 198
361.131 -3.067 529.209 205 204 198
363.033 -3.067 529.209 205 204 198
364.934 -3.067 529.209 205 204 198
366.836 -3.067 529.209 205 204 198
368.738 -3.067 529.209 205 204 198
370.640 -3.067 529.209 205 204 198
372.541 -3.067 529.209 205 204 198
374.443 -3.067 529.209 205 204 198
376.345 -3.067 529.209 205 203 202
378.246 -3.067 529.209 205 203 202
380.148 -3.067 529.209 205 203 202
382.050 -3.067 529.209 205 203 202
383.952 -3.067 529.209 204 202 201
385.853 -3.067 529.209 204 202 201
387.755 -3.067 529.209 204 202 201
389.657 -3.067 529.209 204 202 201
391.558 -3.067 529.209 204 202 201
393.460 -3.067 529.209 204 202 201
395.362 -3.067 529.209 204 202 201
-638.339 -1.738 789.134 11 12 5
-637.237 -1.742 791.287 12 13 6
-633.961 -1.741 790.748 10 11 4
-631.119 -1.741 790.748 10 9 3
-626.569 -1.737 788.597 10 11 4
-624.160 -1.738 789.134 7 10 3
-621.324 -1.738 789.134 6 14 5
-618.488 -1.738 789.134 5 13 4
-614.816 -1.735 788.062 8 9 2
-611.154 -1.733 786.992 9 10 3
-607.502 -1.731 785.926 10 11 4
-605.087 -1.732 786.459 11 12 5
-603.489 -1.735 788.062 11 12 5
-600.657 -1.735 788.062 9 10 3
-597.825 -1.735 788.062 10 11 4
-594.993 -1.735 788.062 11 12 5
-592.967 -1.738 789.134 10 11 4
-589.730 -1.737 788.597 11 12 5
-586.497 -1.735 788.062 11 12 5
-583.665 -1.735 788.062 10 11 4
-580.439 -1.734 787.527 9 10 3
-578.001 -1.735 788.062 9 10 3
-575.169 -1.735 788.062 11 12 5
-572.338 -1.735 788.062 11 12 5
-569.893 -1.737 788.597 9 10 3
-567.059 -1.737 788.597 9 10 3
-564.225 -1.737 788.597 9 10 3
-561.010 -1.735 788.062 9 10 3
-557.799 -1.734 787.527 12 13 6
-556.859 -1.740 790.209 9 10 3
-552.890 -1.737 788.597 9 10 3
-551.932 -1.742 791.287 9 10 3
-548.340 -1.740 790.209 11 12 5
-544.018 -1.735 788.062 14 14 11
-539.354 -1.730 785.394 39 39 39
-537.260 -1.732 786.459 45 44 46
-535.159 -1.734 787.527 43 43 41
-532.329 -1.734 787.527 40 40 38
-529.499 -1.734 787.527 22 22 20
-527.027 -1.735 788.062 20 20 18
-524.195 -1.735 788.062 23 23 23
-521.718 -1.737 788.597 25 25 25
-518.531 -1.735 788.062 39 39 39
-516.401 -1.738 789.134 48 48 48
-514.615 -1.741 790.748 45 45 45
-510.729 -1.738 789.134 43 43 41
-508.932 -1.741 790.748 24 24 22
-512.731 -1.764 801.123 22 22 20
-511.619 -1.770 803.899 14 14 12
-511.210 -1.779 807.818 14 14 12
-509.016 -1.781 808.945 19 19 17
-506.109 -1.781 808.945 26 26 24
-469.873 -1.765 801.677 30 30 26
-467.963 -1.769 803.343 30 30 25
-466.044 -1.773 805.015 29 29 24
-558.674 -2.281 1035.738 29 29 27
-554.952 -2.281 1035.738 26 26 24
-550.248 -2.277 1033.892 25 25 23
-546.532 -2.277 1033.892 25 25 23
-543.786 -2.281 1035.738 25 25 23
-539.583 -2.279 1034.814 25 25 23
-535.864 -2.279 1034.814 27 27 25
-532.146 -2.279 1034.814 27 27 25
-528.899 -2.281 1035.738 25 25 23
-524.708 -2.279 1034.814 26 26 24
-520.990 -2.279 1034.814 31 30 24
-516.810 -2.277 1033.892 33 30 25
-512.638 -2.275 1032.971 30 24 20
-612.566 -2.738 1243.330 41 34 30
-602.928 -2.715 1232.759 43 38 33
-597.229 -2.709 1230.145 42 41 35
-585.359 -2.675 1214.688 42 41 35
-587.080 -2.723 1236.702 69 68 62
-585.758 -2.738 1243.330 30 20 24
-581.290 -2.738 1243.330 40 32 35
-578.061 -2.744 1246.001 39 35 37
-575.438 -2.753 1250.029 38 36 37
-572.798 -2.762 1254.083 35 37 37
-565.236 -2.747 1247.340 35 37 37
-558.951 -2.738 1243.330 36 38 38
-553.297 -2.732 1240.670 38 40 40
-548.838 -2.732 1240.670 35 37 37
-194.171 -1.165 529.209 100 100 100
-193.683 -1.174 533.100 103 101 102
-190.368 -1.165 529.209 105 103 104
-188.466 -1.165 529.209 109 107 108
-186.565 -1.165 529.209 112 110 111
-184.663 -1.165 529.209 117 115 116
-182.761 -1.165 529.209 118 120 118
-180.859 -1.165 529.209 130 130 128
-178.958 -1.165 529.209 123 120 119
-177.056 -1.165 529.209 131 124 125
-175.154 -1.165 529.209 154 147 148
-173.252 -1.165 529.209 201 200 194
-171.351 -1.165 529.209 201 200 194
-169.449 -1.165 529.209 199 198 192
-167.547 -1.165 529.209 199 198 192
-165.646 -1.165 529.209 199 198 192
-163.744 -1.165 529.209 199 198 192
-161.842 -1.165 529.209 199 198 192
-159.940 -1.165 529.209 199 198 192
-158.039 -1.165 529.209 200 199 193
-156.137 -1.165 529.209 200 199 193
-154.235 -1.165 529.209 200 199 193
-152.334 -1.165 529.209 198 197 191
-150.432 -1.165 529.209 198 197 191
-148.530 -1.165 529.209 200 199 193
-146.628 -1.165 529.209 200 199 193
-144.727 -1.165 529.209 200 199 193
-142.825 -1.165 529.209 201 200 194
-120.444 -1.170 531.148 148 149 142
-118.103 -1.165 529.209 37 41 33
-116.201 -1.165 529.209 47 49 44
-114.299 -1.165 529.209 47 47 45
-112.397 -1.165 529.209 47 47 45
-110.496 -1.165 529.209 45 45 43
-108.594 -1.165 529.209 46 46 44
-106.692 -1.165 529.209 46 46 45
-104.791 -1.165 529.209 45 45 44
-117.363 -1.595 724.111 47 47 47
-114.761 -1.595 724.111 210 210 210
-112.299 -1.597 725.017 199 197 196
-109.693 -1.597 725.017 199 197 196
-107.088 -1.597 725.017 204 202 201
-104.483 -1.597 725.017 202 200 199
-101.877 -1.597 725.017 203 200 200
-99.272 -1.597 725.017 195 191 193
47.098 -2.077 943.111 52 52 50
50.405 -2.073 941.580 52 52 50
35.937 -1.165 529.209 199 200 193
37.838 -1.165 529.209 199 200 193
39.740 -1.165 529.209 199 200 193
41.642 -1.165 529.209 199 200 193
43.544 -1.165 529.209 200 199 193
94.418 -1.568 712.110 200 199 193
97.037 -1.569 712.547 200 199 193
99.414 -1.566 711.236 200 199 193
101.908 -1.565 710.801 179 179 177
104.526 -1.566 711.236 52 52 50
131.245 -1.220 554.241 41 41 41
132.666 -1.215 551.868 40 40 40
134.778 -1.216 552.394 37 37 37
170.959 -1.165 529.209 204 205 203
172.861 -1.165 529.209 201 201 199
174.762 -1.165 529.209 204 204 202
176.664 -1.165 529.209 203 203 201
178.566 -1.165 529.209 204 204 201
180.468 -1.165 529.209 205 204 198
182.369 -1.165 529.209 205 204 198
184.271 -1.165 529.209 206 205 199
634.377 -3.189 1448.223 27 27 27
279.357 -1.165 529.209 11 10 12
281.259 -1.165 529.209 17 17 15
283.160 -1.165 529.209 32 32 30
285.062 -1.165 529.209 29 29 26
286.964 -1.165 529.209 32 32 29
288.866 -1.165 529.209 26 26 24
290.767 -1.165 529.209 27 27 25
292.669 -1.165 529.209 26 26 24
294.571 -1.165 529.209 25 25 23
296.472 -1.165 529.209 25 25 25
298.374 -1.165 529.209 24 24 24
300.276 -1.165 529.209 26 26 23
302.178 -1.165 529.209 24 25 18
304.079 -1.165 529.209 24 25 19
305.981 -1.165 529.209 25 25 23
307.883 -1.165 529.209 23 23 21
309.785 -1.165 529.209 23 23 21
311.686 -1.165 529.209 24 24 22
313.588 -1.165 529.209 24 25 18
315.490 -1.165 529.209 22 23 16
317.391 -1.165 529.209 23 24 17
319.293 -1.165 529.209 23 24 17
321.195 -1.165 529.209 23 24 17
323.097 -1.165 529.209 23 24 17
324.998 -1.165 529.209 24 25 18
326.900 -1.165 529.209 24 25 18
328.802 -1.165 529.209 24 24 21
330.703 -1.165 529.209 25 26 15
332.605 -1.165 529.209 10 13 3
334.507 -1.165 529.209 212 214 201
336.409 -1.165 529.209 204 202 201
338.310 -1.165 529.209 206 204 202
340.212 -1.165 529.209 205 203 202
342.114 -1.165 529.209 205 203 202
344.015 -1.165 529.209 205 204 198
345.917 -1.165 529.209 206 205 199
347.819 -1.165 529.209 206 205 199
349.721 -1.165 529.209 206 205 199
351.622 -1.165 529.209 205 204 199
353.524 -1.165 529.209 204 202 199
355.426 -1.165 529.209 204 202 199
357.328 -1.165 529.209 204 203 200
359.229 -1.165 529.209 204 203 200
361.131 -1.165 529.209 205 204 198
363.033 -1.165 529.209 205 204 198
364.934 -1.165 529.209 204 203 197
366.836 -1.165 529.209 204 203 197
368.738 -1.165 529.209 205 203 202
370.640 -1.165 529.209 205 203 202
372.541 -1.165 529.209 204 202 201
374.443 -1.165 529.209 204 202 201
376.345 -1.165 529.209 204 203 197
378.246 -1.165 529.209 205 204 198
380.148 -1.165 529.209 205 204 198
382.050 -1.165 529.209 205 204 198
383.952 -1.165 529.209 204 203 200
385.853 -1.165 529.209 204 202 201
387.755 -1.165 529.209 204 202 201
389.657 -1.165 529.209 204 202 201
391.558 -1.165 529.209 204 202 201
393.460 -1.165 529.209 203 202 196
-637.905 1.097 788.597 11 12 5
-637.237 1.101 791.287 12 13 6
-633.529 1.100 790.209 10 11 4
-631.119 1.100 790.748 11 11 4
-626.569 1.097 788.597 7 8 1
-624.160 1.098 789.134 8 11 4
-621.324 1.098 789.134 6 14 5
-618.488 1.098 789.134 5 12 4
-614.816 1.097 788.062 8 9 2
-611.154 1.095 786.992 9 10 3
-607.502 1.094 785.926 10 11 4
-605.087 1.094 786.459 11 12 5
-603.489 1.097 788.062 11 12 5
-600.657 1.097 788.062 9 10 3
-597.825 1.097 788.062 9 10 3
-594.993 1.097 788.062 10 11 4
-592.563 1.097 788.597 10 11 4
-589.730 1.097 788.597 9 10 3
-586.497 1.097 788.062 10 11 4
-583.665 1.097 788.062 8 9 2
-580.439 1.096 787.527 9 10 3
-578.001 1.097 788.062 9 10 3
-575.169 1.097 788.062 8 9 2
-572.338 1.097 788.062 8 9 2
-569.893 1.097 788.597 10 11 4
-566.674 1.097 788.062 9 10 3
-564.225 1.097 788.597 8 9 2
-561.010 1.097 788.062 6 9 2
-557.799 1.096 787.527 6 9 2
-556.859 1.100 790.209 8 11 4
-552.890 1.097 788.597 9 12 5
-551.932 1.101 791.287 11 12 5
-548.714 1.100 790.748 11 12 5
-544.018 1.097 788.062 15 15 12
-539.354 1.093 785.394 36 36 36
-537.260 1.094 786.459 43 42 44
-535.523 1.097 788.062 42 42 40
-532.329 1.096 787.527 39 39 37
-529.499 1.096 787.527 22 22 20
-527.027 1.097 788.062 18 18 16
-524.551 1.097 788.597 24 24 22
-522.072 1.098 789.134 26 26 24
-518.884 1.097 788.597 37 37 35
-516.401 1.098 789.134 44 44 42
-513.915 1.099 789.671 46 46 44
-510.729 1.098 789.134 45 42 37
-508.586 1.100 790.209 26 25 19
-510.967 1.111 798.367 22 23 16
-511.619 1.119 803.899 11 16 8
-510.855 1.123 807.256 11 16 8
-509.727 1.127 810.074 17 21 14
-506.463 1.126 809.509 28 29 22
-470.802 1.111 798.367 29 30 23
-468.901 1.113 800.018 30 31 24
-467.639 1.117 802.787 30 31 24
-465.721 1.119 804.457 29 30 23
-575.985 1.420 1020.252 29 30 23
-558.674 1.441 1035.738 29 29 27
-554.457 1.440 1034.814 26 26 24
-550.248 1.439 1033.892 25 25 23
-546.532 1.439 1033.892 25 25 23
-543.786 1.441 1035.738 25 25 23
-539.583 1.440 1034.814 25 25 23
-535.864 1.440 1034.814 27 27 25
-532.146 1.440 1034.814 27 27 25
-528.427 1.440 1034.814 25 25 23
-524.708 1.440 1034.814 26 26 24
-520.990 1.440 1034.814 27 26 20
-516.810 1.439 1033.892 32 29 24
-510.818 1.432 1029.305 30 24 20
-504.880 1.426 1024.758 36 29 25
-601.012 1.710 1228.842 43 37 32
-595.965 1.708 1227.541 40 39 33
-587.204 1.695 1218.515 43 42 36
-586.522 1.706 1226.244 57 56 50
-585.208 1.715 1232.759 69 68 62
-582.636 1.721 1236.702 30 21 18
-576.961 1.717 1234.071 46 39 35
-576.205 1.728 1241.999 44 41 36
-573.584 1.734 1246.001 43 42 36
-221.423 0.786 564.765 70 69 71
-218.968 0.784 563.667 78 77 79
-217.576 0.787 565.315 75 74 76
-215.650 0.787 565.591 80 79 80
-213.409 0.786 565.040 93 95 95
-210.968 0.785 563.941 95 98 97
-205.914 0.781 561.213 98 98 98
-188.466 0.736 529.209 111 109 110
-585.589 2.384 1713.481 116 117 110
-177.056 0.736 529.209 54 54 54
-175.154 0.736 529.209 121 120 122
-173.252 0.736 529.209 203 196 197
-171.351 0.736 529.209 204 197 196
-163.744 0.736 529.209 199 198 192
-161.842 0.736 529.209 200 199 193
-159.940 0.736 529.209 198 197 191
-158.039 0.736 529.209 200 199 193
-156.137 0.736 529.209 199 198 192
-154.235 0.736 529.209 199 198 192
-152.334 0.736 529.209 199 198 192
-150.432 0.736 529.209 199 198 192
-148.530 0.736 529.209 199 198 192
-146.628 0.736 529.209 199 198 192
-144.727 0.736 529.209 199 198 192
-142.825 0.736 529.209 199 198 192
-140.923 0.736 529.209 200 199 193
-118.753 0.740 532.122 40 39 31
-116.201 0.736 529.209 49 48 43
-114.299 0.736 529.209 46 46 44
-112.397 0.736 529.209 46 46 44
-110.496 0.736 529.209 45 45 43
-108.594 0.736 529.209 45 45 43
-106.692 0.736 529.209 46 46 46
-104.791 0.736 529.209 45 45 45
-122.874 1.010 725.924 49 49 49
-120.115 1.009 725.017 51 51 51
-117.436 1.008 724.564 48 48 48
-114.761 1.008 724.111 198 198 198
-112.299 1.009 725.017 198 196 195
-109.693 1.009 725.017 198 196 195
-107.088 1.009 725.017 199 197 196
-104.483 1.009 725.017 200 198 197
-101.877 1.009 725.017 205 204 204
-99.272 1.009 725.017 192 193 193
-0.196 0.736 529.209 52 52 50
92.313 0.996 715.624 201 200 194
94.884 0.996 715.624 199 198 192
97.156 0.993 713.423 198 197 191
99.414 0.990 711.236 202 201 195
101.970 0.990 711.236 206 206 206
104.526 0.990 711.236 42 42 40
136.258 0.801 575.410 42 42 42
132.038 0.764 549.255 40 40 40
134.266 0.766 550.297 37 37 37
178.566 0.736 529.209 204 204 202
180.468 0.736 529.209 205 204 198
182.369 0.736 529.209 205 204 198
184.271 0.736 529.209 206 205 199
186.173 0.736 529.209 206 205 199
188.074 0.736 529.209 205 203 202
277.455 0.736 529.209 25 16 26
279.357 0.736 529.209 38 31 32
281.259 0.736 529.209 28 26 25
283.160 0.736 529.209 28 26 25
285.062 0.736 529.209 26 24 23
286.964 0.736 529.209 26 24 23
288.866 0.736 529.209 25 25 23
290.767 0.736 529.209 25 25 23
292.669 0.736 529.209 25 25 23
294.571 0.736 529.209 26 26 24
296.472 0.736 529.209 25 25 23
298.374 0.736 529.209 24 24 22
300.276 0.736 529.209 24 24 22
302.178 0.736 529.209 24 24 22
304.079 0.736 529.209 24 24 22
305.981 0.736 529.209 24 24 22
307.883 0.736 529.209 24 24 22
309.785 0.736 529.209 24 24 22
311.686 0.736 529.209 24 24 22
313.588 0.736 529.209 24 23 17
315.490 0.736 529.209 24 23 17
317.391 0.736 529.209 24 23 17
319.293 0.736 529.209 24 23 17
321.195 0.736 529.209 24 25 18
323.097 0.736 529.209 24 25 18
324.998 0.736 529.209 24 25 18
326.900 0.736 529.209 24 25 18
328.802 0.736 529.209 24 24 22
330.703 0.736 529.209 23 24 17
332.605 0.736 529.209 24 26 13
334.507 0.736 529.209 201 204 185
336.409 0.736 529.209 202 204 189
338.310 0.736 529.209 203 204 197
340.212 0.736 529.209 204 204 204
342.114 0.736 529.209 204 204 200
344.015 0.736 529.209 205 204 198
345.917 0.736 529.209 205 204 198
347.819 0.736 529.209 205 204 198
349.721 0.736 529.209 205 204 198
351.622 0.736 529.209 205 204 199
353.524 0.736 529.209 204 202 201
355.426 0.736 529.209 204 202 201
357.328 0.736 529.209 204 202 201
359.229 0.736 529.209 204 202 201
361.131 0.736 529.209 205 204 198
363.033 0.736 529.209 205 204 198
364.934 0.736 529.209 204 203 197
366.836 0.736 529.209 204 203 197
368.738 0.736 529.209 205 203 202
370.640 0.736 529.209 205 203 202
372.541 0.736 529.209 204 202 201
374.443 0.736 529.209 204 202 201
376.345 0.736 529.209 203 202 196
378.246 0.736 529.209 204 203 197
380.148 0.736 529.209 205 204 198
382.050 0.736 529.209 205 204 198
383.952 0.736 529.209 204 203 200
385.853 0.736 529.209 204 202 201
387.755 0.736 529.209 204 202 201
389.657 0.736 529.209 204 202 201
391.558 0.736 529.209 204 202 201
393.460 0.736 529.209 203 202 196
-637.905 3.931 788.597 10 11 4
-638.980 3.955 793.452 11 12 5
-633.529 3.939 790.209 10 11 4
-631.119 3.942 790.748 8 10 3
-626.144 3.928 788.062 7 10 3
-623.736 3.931 788.597 7 10 3
-620.902 3.931 788.597 7 10 3
-618.068 3.931 788.597 7 10 3
-614.399 3.926 787.527 10 11 4
-610.326 3.918 785.926 9 10 3
-606.269 3.910 784.332 10 11 4
-603.859 3.912 784.862 13 14 7
-602.670 3.923 786.992 12 13 6
-600.249 3.926 787.527 9 10 3
-597.014 3.923 786.992 9 10 3
-594.185 3.923 786.992 10 11 4
-592.161 3.928 788.062 10 11 4
-589.329 3.928 788.062 11 12 5
-585.701 3.923 786.992 12 13 6
-582.873 3.923 786.992 8 9 2
-579.652 3.920 786.459 9 10 3
-578.001 3.928 788.062 9 10 3
-574.779 3.926 787.527 9 10 3
-571.561 3.923 786.992 9 10 3
-569.506 3.928 788.062 10 11 4
-566.674 3.928 788.062 9 10 3
-563.842 3.928 788.062 8 9 2
-560.629 3.926 787.527 7 10 3
-557.043 3.920 786.459 7 10 3
-556.859 3.939 790.209 9 12 5
-552.514 3.928 788.062 8 11 4
-552.309 3.947 791.827 10 11 4
-548.714 3.942 790.748 9 10 3
-544.018 3.928 788.062 13 13 10
-537.898 3.905 783.273 34 34 34
-536.169 3.912 784.862 42 41 43
-534.796 3.923 786.992 42 42 40
-531.607 3.920 786.459 39 39 37
-528.781 3.920 786.459 24 24 22
-526.312 3.923 786.992 17 17 15
-524.195 3.928 788.062 24 24 22
-522.072 3.934 789.134 26 26 24
-518.531 3.928 788.062 36 36 34
-515.699 3.928 788.062 44 44 42
-513.565 3.934 789.134 46 46 44
-510.035 3.928 788.062 45 42 37
-507.894 3.934 789.134 26 26 19
-509.215 3.966 795.629 22 23 16
-510.911 4.002 802.787 11 16 8
-510.145 4.019 806.134 12 17 9
-510.083 4.041 810.641 17 21 13
-507.525 4.044 811.207 28 29 22
-470.802 3.980 798.367 29 30 23
-468.578 3.985 799.467 30 31 24
-466.992 3.996 801.677 30 31 24
-465.721 4.010 804.457 29 30 23
-575.479 5.081 1019.356 29 30 23
-557.182 5.149 1032.971 27 26 20
-552.977 5.145 1032.052 27 27 25
-548.780 5.140 1031.135 24 24 22
-545.075 5.140 1031.135 23 23 21
-542.334 5.149 1032.971 25 25 23
-538.622 5.149 1032.971 27 27 25
-534.910 5.149 1032.971 27 27 25
-531.198 5.149 1032.971 26 26 24
-527.486 5.149 1032.971 29 29 27
-523.774 5.149 1032.971 28 28 26
-520.062 5.149 1032.971 24 27 20
-515.890 5.145 1032.052 28 29 22
-509.012 5.113 1025.665 36 29 25
-503.989 5.099 1022.951 37 26 23
-599.741 6.113 1226.244 44 32 30
-593.453 6.093 1222.367 46 39 35
-581.704 6.017 1207.104 41 42 35
-576.767 6.011 1205.849 54 51 46
-582.115 6.113 1226.244 71 62 59
-578.932 6.126 1228.842 34 18 17
-574.517 6.126 1228.842 46 34 32
-571.311 6.139 1231.451 48 42 38
-567.488 6.145 1232.759 45 44 38
-218.755 2.807 563.120 75 75 75
-215.440 2.817 565.040 63 63 63
-212.994 2.811 563.941 87 87 87
-210.354 2.803 562.301 97 97 97
-208.233 2.802 562.028 100 100 100
-205.914 2.798 561.213 96 96 96
-191.081 2.675 536.553 107 105 106
-624.007 9.007 1806.895 114 115 108
-613.690 8.951 1795.707 112 113 106
-611.020 9.007 1806.895 34 34 31
-175.154 2.638 529.209 114 113 115
-173.252 2.638 529.209 204 197 198
-163.744 2.638 529.209 199 198 192
-161.842 2.638 529.209 200 199 193
-159.940 2.638 529.209 198 197 191
-156.137 2.638 529.209 199 198 192
-154.235 2.638 529.209 199 198 192
-152.334 2.638 529.209 199 198 192
-150.432 2.638 529.209 199 198 192
-148.530 2.638 529.209 199 198 192
-146.628 2.638 529.209 199 198 192
-144.727 2.638 529.209 199 198 192
-142.825 2.638 529.209 199 198 192
-140.923 2.638 529.209 200 199 193
-139.022 2.638 529.209 200 199 193
-118.103 2.638 529.209 32 31 23
-116.201 2.638 529.209 47 46 40
-114.299 2.638 529.209 44 44 42
-112.397 2.638 529.209 44 44 42
-110.496 2.638 529.209 45 45 43
-108.594 2.638 529.209 45 45 43
-106.692 2.638 529.209 45 45 45
-104.791 2.638 529.209 44 44 44
-126.591 3.651 732.340 47 47 47
-123.182 3.628 727.746 47 48 49
-120.340 3.621 726.379 49 50 51
-117.730 3.621 726.379 49 51 52
-115.120 3.621 726.379 111 113 115
-112.580 3.623 726.834 201 202 202
-105.272 3.641 730.495 72 74 74
-2.098 2.638 529.209 51 51 49
-0.196 2.638 529.209 50 50 48
1.706 2.638 529.209 50 51 44
3.608 2.638 529.209 50 51 44
5.509 2.638 529.209 49 50 43
51.812 4.521 906.979 52 53 46
54.985 4.514 905.563 53 54 47
99.414 3.545 711.236 131 129 130
101.970 3.545 711.236 58 58 58
136.461 2.873 576.268 43 43 43
138.052 2.863 574.271 40 40 40
432.779 6.909 1385.934 32 32 32
541.774 8.454 1695.945 35 35 35
174.762 2.638 529.209 201 201 199
178.566 2.638 529.209 206 202 202
180.468 2.638 529.209 206 205 199
182.369 2.638 529.209 206 205 199
184.271 2.638 529.209 205 204 198
186.173 2.638 529.209 205 204 198
188.074 2.638 529.209 205 203 202
299.519 3.585 719.173 209 203 199
301.543 3.578 717.838 180 173 174
647.164 6.327 1269.176 204 203 197
649.592 6.306 1265.024 206 205 199
652.005 6.285 1260.898 213 207 203
277.455 2.638 529.209 41 32 42
279.357 2.638 529.209 34 27 28
281.259 2.638 529.209 28 26 25
283.160 2.638 529.209 28 26 25
285.062 2.638 529.209 26 24 23
286.964 2.638 529.209 26 24 23
288.866 2.638 529.209 25 25 23
290.767 2.638 529.209 25 25 23
292.669 2.638 529.209 26 26 24
294.571 2.638 529.209 24 24 22
296.472 2.638 529.209 24 24 22
298.374 2.638 529.209 24 24 22
300.276 2.638 529.209 24 24 22
302.178 2.638 529.209 24 24 22
304.079 2.638 529.209 24 24 22
307.883 2.638 529.209 24 24 22
309.785 2.638 529.209 24 24 22
311.686 2.638 529.209 24 24 22
313.588 2.638 529.209 24 23 17
315.490 2.638 529.209 24 23 17
317.391 2.638 529.209 24 23 17
319.293 2.638 529.209 24 23 17
321.195 2.638 529.209 24 25 18
323.097 2.638 529.209 24 25 18
324.998 2.638 529.209 24 25 18
326.900 2.638 529.209 24 25 18
328.802 2.638 529.209 24 24 22
330.703 2.638 529.209 23 24 17
332.605 2.638 529.209 16 18 5
334.507 2.638 529.209 149 152 133
336.409 2.638 529.209 202 204 189
338.310 2.638 529.209 203 204 197
340.212 2.638 529.209 204 204 204
342.114 2.638 529.209 204 204 200
344.015 2.638 529.209 205 204 198
345.917 2.638 529.209 205 204 198
347.819 2.638 529.209 205 204 198
349.721 2.638 529.209 205 204 198
351.622 2.638 529.209 205 204 198
353.524 2.638 529.209 204 202 201
355.426 2.638 529.209 204 202 201
357.328 2.638 529.209 204 202 201
359.229 2.638 529.209 204 202 201
361.131 2.638 529.209 205 204 200
363.033 2.638 529.209 205 204 200
364.934 2.638 529.209 204 202 199
366.836 2.638 529.209 203 202 199
368.738 2.638 529.209 204 203 199
370.640 2.638 529.209 204 203 199
372.541 2.638 529.209 204 203 198
374.443 2.638 529.209 204 203 198
376.345 2.638 529.209 203 201 199
378.246 2.638 529.209 204 202 201
380.148 2.638 529.209 205 203 202
382.050 2.638 529.209 205 203 202
383.952 2.638 529.209 204 203 199
385.853 2.638 529.209 205 204 198
387.755 2.638 529.209 203 202 196
389.657 2.638 529.209 204 203 197
391.558 2.638 529.209 204 203 197
393.460 2.638 529.209 203 201 200
-636.175 6.747 786.459 12 13 6
-631.808 6.760 788.062 10 11 4
-628.976 6.760 788.062 8 10 3
-621.919 6.715 782.744 7 10 3
-620.782 6.733 784.862 7 10 3
-617.126 6.724 783.802 7 10 3
-615.557 6.737 785.394 7 10 3
-610.668 6.715 782.744 8 9 2
-607.036 6.706 781.689 10 11 4
-602.198 6.683 779.064 9 10 3
-599.398 6.683 779.064 9 10 3
-597.401 6.692 780.112 7 8 1
-597.814 6.728 784.332 9 10 3
-593.390 6.710 782.216 9 10 3
-590.579 6.710 782.216 10 11 4
-588.960 6.724 783.802 10 11 4
-585.748 6.719 783.273 8 9 2
-582.540 6.715 782.744 12 13 6
-579.727 6.715 782.744 14 15 8
-575.749 6.701 781.163 9 10 3
-574.877 6.724 783.802 9 10 3
-570.903 6.710 782.216 10 11 4
-568.476 6.715 782.744 9 10 3
-567.578 6.737 785.394 9 10 3
-564.755 6.737 785.394 9 10 3
-561.933 6.737 785.394 9 10 3
-556.849 6.710 782.216 10 13 6
-554.038 6.710 782.216 10 13 6
-555.724 6.765 788.597 8 11 4
-550.644 6.737 785.394 7 10 3
-552.686 6.797 792.368 5 10 2
-547.967 6.774 789.671 7 10 3
-542.912 6.747 786.459 11 11 8
-536.449 6.701 781.163 34 32 33
-534.361 6.710 782.216 46 41 45
-533.710 6.737 785.394 43 43 41
-530.887 6.737 785.394 41 41 39
-527.708 6.733 784.862 24 24 22
-524.533 6.728 784.332 18 18 16
-524.195 6.760 788.062 22 22 22
-522.072 6.770 789.134 25 25 25
-518.531 6.760 788.062 35 35 35
-515.349 6.756 787.527 44 44 44
-512.867 6.760 788.062 43 43 43
-509.689 6.756 787.527 44 45 38
-507.204 6.760 788.062 26 27 20
-508.169 6.811 793.995 23 24 17
-510.205 6.877 801.677 14 15 8
-509.436 6.906 805.015 17 18 11
-509.016 6.939 808.945 16 17 10
-507.170 6.954 810.641 31 32 25
-468.578 6.858 799.467 29 30 23
-466.992 6.877 801.677 30 31 24
-574.469 8.729 1017.567 29 30 23
-558.903 8.830 1029.305 31 30 24
-555.697 8.838 1030.219 28 27 21
-552.977 8.853 1032.052 27 27 25
-548.780 8.846 1031.135 26 26 24
-545.560 8.853 1032.052 24 24 22
-542.334 8.861 1032.971 25 25 23
-538.622 8.861 1032.971 27 27 25
-534.910 8.861 1032.971 27 27 25
-531.198 8.861 1032.971 26 26 24
-527.486 8.861 1032.971 29 29 27
-523.774 8.861 1032.971 28 28 26
-520.062 8.861 1032.971 24 27 20
-515.432 8.846 1031.135 28 29 22
-508.113 8.783 1023.854 35 28 24
-503.102 8.760 1021.150 32 20 18
-600.376 10.530 1227.541 49 37 35
-593.453 10.486 1222.367 45 38 34
-582.310 10.366 1208.361 43 44 37
-579.780 10.398 1212.149 53 50 45
-582.115 10.519 1226.244 62 53 50
-578.320 10.530 1227.541 40 24 23
-574.517 10.542 1228.842 53 41 39
-571.311 10.564 1231.451 50 44 40
-569.303 10.609 1236.702 45 44 38
-206.013 4.817 561.484 100 100 100
-194.087 4.628 539.547 104 103 104
-620.413 15.573 1815.378 121 120 114
-614.851 15.598 1818.224 31 33 29
-175.154 4.540 529.209 111 106 110
-173.252 4.540 529.209 180 177 178
-161.842 4.540 529.209 197 196 190
-159.940 4.540 529.209 198 197 191
-156.137 4.540 529.209 199 198 192
-154.235 4.540 529.209 199 198 192
-152.334 4.540 529.209 199 198 192
-150.432 4.540 529.209 199 198 192
-148.530 4.540 529.209 199 198 192
-146.628 4.540 529.209 199 198 192
-144.727 4.540 529.209 198 197 191
-142.825 4.540 529.209 199 198 192
-140.923 4.540 529.209 199 198 192
-139.022 4.540 529.209 199 198 192
-137.120 4.540 529.209 199 198 192
-118.103 4.540 529.209 74 75 66
-116.201 4.540 529.209 43 45 38
-114.299 4.540 529.209 45 45 43
-112.397 4.540 529.209 45 45 43
-110.496 4.540 529.209 45 45 43
-108.594 4.540 529.209 45 45 43
-106.692 4.540 529.209 44 44 44
-104.791 4.540 529.209 44 44 44
-127.720 6.338 738.870 48 48 48
-124.116 6.290 733.266 50 50 50
-120.567 6.243 727.746 36 36 36
-117.952 6.243 727.746 63 63 63
-115.554 6.255 729.118 137 137 137
-3.999 4.540 529.209 51 51 49
-2.098 4.540 529.209 51 51 49
-0.196 4.540 529.209 50 50 48
1.706 4.540 529.209 50 51 44
3.608 4.540 529.209 50 51 44
5.509 4.540 529.209 49 50 43
7.411 4.540 529.209 49 50 43
46.864 6.621 771.807 54 55 48
428.824 11.918 1389.253 32 32 32
428.175 11.763 1371.190 32 32 32
432.081 11.735 1367.956 33 33 33
436.997 11.735 1367.956 35 35 35
174.762 4.540 529.209 200 200 198
176.664 4.540 529.209 204 202 201
178.566 4.540 529.209 206 202 202
180.468 4.540 529.209 205 204 198
182.369 4.540 529.209 205 204 198
184.271 4.540 529.209 205 204 198
186.173 4.540 529.209 205 204 198
297.304 6.177 720.066 209 203 199
299.148 6.162 718.283 207 201 197
301.356 6.154 717.394 217 210 211
303.747 6.150 716.951 22 15 18
845.258 14.527 1693.470 204 202 201
851.344 14.527 1693.470 205 203 202
857.429 14.527 1693.470 205 203 202
863.515 14.527 1693.470 204 202 201
869.600 14.527 1693.470 204 202 201
875.686 14.527 1693.470 201 203 199
277.455 4.540 529.209 125 121 123
279.357 4.540 529.209 25 17 24
281.259 4.540 529.209 27 27 25
283.160 4.540 529.209 25 25 23
285.062 4.540 529.209 27 27 25
286.964 4.540 529.209 27 27 25
288.866 4.540 529.209 25 25 23
290.767 4.540 529.209 25 25 23
292.669 4.540 529.209 25 25 23
294.571 4.540 529.209 25 25 23
296.472 4.540 529.209 25 25 21
298.374 4.540 529.209 24 25 18
300.276 4.540 529.209 24 25 18
302.178 4.540 529.209 23 24 17
304.079 4.540 529.209 23 24 17
319.293 4.540 529.209 23 19 21
321.195 4.540 529.209 21 22 15
323.097 4.540 529.209 21 22 15
324.998 4.540 529.209 23 24 17
326.900 4.540 529.209 23 24 17
328.802 4.540 529.209 24 24 24
330.703 4.540 529.209 24 24 20
332.605 4.540 529.209 26 27 17
334.507 4.540 529.209 53 55 38
336.409 4.540 529.209 206 209 190
338.310 4.540 529.209 202 203 194
340.212 4.540 529.209 204 204 202
342.114 4.540 529.209 204 205 198
344.015 4.540 529.209 204 203 197
345.917 4.540 529.209 204 203 197
347.819 4.540 529.209 204 203 197
349.721 4.540 529.209 205 204 198
351.622 4.540 529.209 205 204 198
353.524 4.540 529.209 204 202 201
355.426 4.540 529.209 204 202 201
357.328 4.540 529.209 204 202 201
359.229 4.540 529.209 204 202 201
361.131 4.540 529.209 205 203 202
363.033 4.540 529.209 205 203 202
364.934 4.540 529.209 204 202 201
366.836 4.540 529.209 204 202 201
368.738 4.540 529.209 204 203 197
370.640 4.540 529.209 204 203 197
372.541 4.540 529.209 204 203 197
374.443 4.540 529.209 204 203 197
376.345 4.540 529.209 203 201 200
378.246 4.540 529.209 204 202 201
380.148 4.540 529.209 204 202 201
382.050 4.540 529.209 204 202 201
383.952 4.540 529.209 204 202 199
385.853 4.540 529.209 205 204 198
387.755 4.540 529.209 203 202 196
389.657 4.540 529.209 204 203 197
391.558 4.540 529.209 204 203 197
393.460 4.540 529.209 203 201 200
-636.606 9.579 786.992 11 12 5
-630.690 9.618 790.209 9 10 3
-622.339 9.534 783.273 10 11 4
-620.782 9.553 784.862 9 10 3
-617.961 9.553 784.862 10 11 4
-615.557 9.560 785.394 11 12 5
-610.668 9.528 782.744 11 12 5
-607.036 9.515 781.689 10 11 4
-602.198 9.483 779.064 10 11 4
-599.398 9.483 779.064 8 9 2
-597.401 9.495 780.112 10 11 4
-598.218 9.553 784.862 12 13 6
-593.791 9.528 782.744 11 12 5
-590.579 9.521 782.216 9 10 3
-588.165 9.528 782.744 9 10 3
-586.143 9.540 783.802 9 10 3
-582.540 9.528 782.744 9 10 3
-579.727 9.528 782.744 9 10 3
-575.749 9.508 781.163 9 10 3
-575.266 9.547 784.332 9 10 3
-570.903 9.521 782.216 10 11 4
-568.476 9.528 782.744 9 10 3
-567.962 9.566 785.926 9 10 3
-565.138 9.566 785.926 9 10 3
-562.314 9.566 785.926 9 10 3
-557.224 9.528 782.744 9 12 5
-554.412 9.528 782.744 9 12 5
-556.102 9.605 789.134 6 9 2
-551.017 9.566 785.926 8 11 4
-553.442 9.658 793.452 8 13 5
-547.594 9.605 789.134 10 13 6
-542.912 9.573 786.459 13 13 10
-536.449 9.508 781.163 32 30 31
-534.001 9.515 781.689 44 39 43
-533.349 9.553 784.862 43 43 41
-530.528 9.553 784.862 41 41 39
-527.708 9.553 784.862 25 25 23
-524.533 9.547 784.332 18 18 16
-524.551 9.599 788.597 22 22 22
-522.428 9.612 789.671 25 25 25
-518.179 9.586 787.527 35 35 35
-515.349 9.586 787.527 44 44 44
-512.867 9.592 788.062 43 43 43
-510.035 9.592 788.062 44 45 38
-507.548 9.599 788.597 26 27 20
-508.517 9.671 794.539 23 24 17
-508.448 9.724 798.916 15 16 9
-509.790 9.805 805.574 15 16 9
-510.083 9.867 810.641 14 15 8
-508.236 9.888 812.344 29 30 23
-511.768 10.014 822.714 30 31 24
-470.849 9.778 803.343 29 30 23
-468.612 9.792 804.457 32 33 26
-577.619 12.375 1016.675 29 30 23
-571.462 12.321 1012.240 29 30 23
-566.342 12.289 1009.597 29 30 23
-567.156 12.386 1017.567 28 29 22
-563.994 12.397 1018.461 28 29 22
-551.830 12.289 1009.597 30 29 23
-553.501 12.408 1019.356 32 31 25
-555.204 12.529 1029.305 29 28 23
-551.995 12.540 1030.219 26 26 24
-548.780 12.551 1031.135 27 27 25
-545.075 12.551 1031.135 26 26 24
-542.334 12.573 1032.971 25 25 23
-538.143 12.562 1032.052 27 27 25
-533.959 12.551 1031.135 27 27 25
-531.198 12.573 1032.971 27 27 25
-527.486 12.573 1032.971 28 28 26
-523.308 12.562 1032.052 28 28 26
-520.062 12.573 1032.971 25 28 21
-514.974 12.540 1030.219 27 28 21
-507.218 12.440 1022.050 34 27 23
-503.102 12.429 1021.150 29 17 15
-602.288 14.989 1231.451 50 36 34
-587.764 14.957 1228.842 58 51 47
-583.348 14.957 1228.842 54 39 38
-579.546 14.973 1230.145 43 27 26
-574.517 14.957 1228.842 60 48 46
-570.101 14.957 1228.842 57 51 47
-768.996 20.493 1683.638 45 45 44
-746.690 20.057 1647.765 43 43 43
-712.433 19.289 1584.736 43 43 43
-716.527 19.556 1606.685 44 44 44
-232.897 6.737 553.448 50 52 52
-230.908 6.737 553.448 45 47 47
-227.293 6.689 549.515 48 50 50
-204.038 6.769 556.101 100 100 100
-628.278 22.377 1838.394 118 115 110
-619.708 22.306 1832.585 35 38 34
-173.252 6.442 529.209 142 140 141
-161.842 6.442 529.209 197 196 190
-159.940 6.442 529.209 198 197 191
-156.137 6.442 529.209 199 198 192
-154.235 6.442 529.209 199 198 192
-152.334 6.442 529.209 199 198 192
-150.432 6.442 529.209 199 198 192
-148.530 6.442 529.209 199 198 192
-146.628 6.442 529.209 199 198 192
-144.727 6.442 529.209 196 195 189
-142.825 6.442 529.209 198 197 191
-140.923 6.442 529.209 199 198 192
-139.022 6.442 529.209 199 198 192
-137.120 6.442 529.209 199 198 192
-135.218 6.442 529.209 199 198 192
-5.901 6.442 529.209 62 63 56
-3.999 6.442 529.209 50 51 44
-2.098 6.442 529.209 52 53 46
-0.196 6.442 529.209 52 53 46
1.706 6.442 529.209 49 49 47
3.608 6.442 529.209 49 49 47
5.509 6.442 529.209 49 49 47
7.411 6.442 529.209 49 49 47
40.680 8.668 712.110 52 53 46
43.212 8.662 711.673 54 55 48
45.770 8.662 711.673 45 46 39
48.298 8.657 711.236 202 203 196
50.853 8.657 711.236 198 199 192
53.409 8.657 711.236 197 198 191
55.965 8.657 711.236 197 198 191
58.521 8.657 711.236 197 197 195
61.039 8.652 710.801 197 197 195
63.594 8.652 710.801 198 198 196
347.636 13.551 1113.269 32 32 32
357.468 13.775 1131.733 33 33 33
176.664 6.442 529.209 204 202 201
180.468 6.442 529.209 204 202 201
182.369 6.442 529.209 204 202 201
184.271 6.442 529.209 204 202 201
186.173 6.442 529.209 204 202 201
294.533 8.759 719.619 208 202 198
297.304 8.765 720.066 206 200 196
298.963 8.737 717.838 207 201 197
301.170 8.727 716.951 216 209 210
303.372 8.716 716.066 35 28 31
279.357 6.442 529.209 30 22 29
281.259 6.442 529.209 27 27 25
283.160 6.442 529.209 25 25 23
285.062 6.442 529.209 25 25 23
286.964 6.442 529.209 25 25 23
288.866 6.442 529.209 24 24 22
290.767 6.442 529.209 24 24 22
292.669 6.442 529.209 24 24 22
294.571 6.442 529.209 24 24 22
296.472 6.442 529.209 24 24 23
298.374 6.442 529.209 24 24 24
300.276 6.442 529.209 24 24 24
302.178 6.442 529.209 23 23 23
304.079 6.442 529.209 23 23 23
328.802 6.442 529.209 24 24 24
330.703 6.442 529.209 24 24 20
332.605 6.442 529.209 29 30 20
334.507 6.442 529.209 17 19 2
336.409 6.442 529.209 207 210 191
338.310 6.442 529.209 202 203 194
340.212 6.442 529.209 204 204 202
342.114 6.442 529.209 204 205 198
344.015 6.442 529.209 204 204 196
345.917 6.442 529.209 204 203 197
347.819 6.442 529.209 204 203 197
349.721 6.442 529.209 205 204 198
351.622 6.442 529.209 205 204 198
353.524 6.442 529.209 204 202 201
355.426 6.442 529.209 204 202 201
357.328 6.442 529.209 204 202 201
359.229 6.442 529.209 204 202 201
361.131 6.442 529.209 205 203 202
363.033 6.442 529.209 205 203 202
364.934 6.442 529.209 205 203 202
366.836 6.442 529.209 205 203 201
368.738 6.442 529.209 204 203 197
370.640 6.442 529.209 204 203 197
372.541 6.442 529.209 204 203 197
374.443 6.442 529.209 204 203 197
376.345 6.442 529.209 203 202 199
378.246 6.442 529.209 204 203 199
380.148 6.442 529.209 204 202 198
382.050 6.442 529.209 204 202 198
383.952 6.442 529.209 203 202 197
385.853 6.442 529.209 204 203 197
387.755 6.442 529.209 203 202 196
389.657 6.442 529.209 205 204 198
391.558 6.442 529.209 205 204 198
393.460 6.442 529.209 202 200 199
-637.471 12.424 788.062 9 10 3
-631.550 12.475 791.287 9 10 3
-624.870 12.399 786.459 10 11 4
-622.889 12.416 787.527 9 10 3
-619.638 12.407 786.992 11 12 5
-617.229 12.416 787.527 10 11 4
-613.150 12.390 785.926 9 10 3
-609.088 12.365 784.332 11 12 5
-602.602 12.291 779.588 11 12 5
-600.204 12.299 780.112 8 9 2
-601.039 12.374 784.862 10 11 4
-599.842 12.407 786.992 9 10 3
-596.205 12.390 785.926 10 11 4
-592.979 12.382 785.394 9 10 3
-591.357 12.407 786.992 9 10 3
-588.529 12.407 786.992 11 12 5
-584.512 12.382 785.394 11 12 5
-581.689 12.382 785.394 10 11 4
-578.084 12.365 784.332 10 11 4
-576.826 12.399 786.459 10 11 4
-573.222 12.382 785.394 11 12 5
-570.786 12.390 785.926 10 11 4
-569.119 12.416 787.527 9 10 3
-566.289 12.416 787.527 9 10 3
-563.842 12.424 788.062 9 10 3
-559.869 12.399 786.459 7 10 3
-556.288 12.382 785.394 7 10 3
-556.480 12.450 789.671 5 8 1
-551.764 12.407 786.992 8 11 4
-553.442 12.509 793.452 5 10 2
-547.967 12.450 789.671 7 10 3
-543.280 12.407 786.992 10 10 7
-536.810 12.324 781.689 32 30 31
-534.361 12.332 782.216 45 40 44
-533.710 12.382 785.394 46 47 41
-530.887 12.382 785.394 41 42 36
-528.065 12.382 785.394 21 22 16
-524.887 12.374 784.862 14 15 8
-524.551 12.433 788.597 19 20 13
-522.428 12.450 789.671 24 25 18
-518.179 12.416 787.527 36 37 30
-515.349 12.416 787.527 42 43 36
-512.867 12.424 788.062 44 45 38
-510.035 12.424 788.062 44 45 38
-507.548 12.433 788.597 31 32 25
-508.866 12.535 795.083 24 25 18
-508.798 12.604 799.467 15 16 9
-509.790 12.700 805.574 17 17 14
-508.662 12.744 808.381 11 11 9
-505.404 12.736 807.818 27 27 25
-471.176 12.674 803.899 30 31 24
-468.937 12.691 805.015 31 32 25
-573.598 15.917 1009.597 30 30 28
-569.970 15.917 1009.597 30 30 28
-564.867 15.875 1006.968 30 30 28
-563.204 15.931 1010.476 28 28 26
-563.499 16.042 1017.567 28 28 26
-554.011 15.875 1006.968 28 28 26
-550.871 15.889 1007.842 30 30 28
-551.562 16.014 1015.785 29 29 27
-555.697 16.242 1030.219 27 27 25
-551.995 16.242 1030.219 28 28 26
-548.780 16.256 1031.135 28 28 26
-545.075 16.256 1031.135 27 27 25
-541.851 16.271 1032.052 25 25 23
-537.664 16.256 1031.135 27 27 25
-534.434 16.271 1032.052 27 27 25
-531.198 16.285 1032.971 27 27 25
-527.017 16.271 1032.052 30 30 28
-523.308 16.271 1032.052 30 30 28
-519.599 16.271 1032.052 25 28 21
-515.890 16.271 1032.052 27 28 21
-507.218 16.113 1022.050 34 27 23
-503.102 16.099 1021.150 31 20 17
-583.967 19.394 1230.145 45 30 29
-578.932 19.373 1228.842 55 39 38
-574.517 19.373 1228.842 75 63 61
-735.212 24.984 1584.736 71 65 61
-732.519 25.087 1591.257 65 64 58
-735.886 25.400 1611.148 51 52 50
-731.112 25.436 1613.389 46 46 46
-715.365 25.087 1591.257 44 44 44
-714.547 25.260 1602.247 44 44 44
-235.448 8.746 554.771 37 39 39
-232.897 8.725 553.448 51 53 53
-230.908 8.725 553.448 51 53 53
-228.592 8.713 552.657 51 53 53
-203.453 8.742 554.506 99 99 99
-200.884 8.717 552.920 103 103 103
-637.369 29.403 1864.995 119 116 111
-628.646 29.308 1859.017 42 45 41
-173.252 8.343 529.209 128 125 126
-161.842 8.343 529.209 196 195 189
-159.940 8.343 529.209 197 196 190
-158.039 8.343 529.209 197 196 190
-156.137 8.343 529.209 199 198 192
-154.235 8.343 529.209 200 199 193
-152.334 8.343 529.209 199 198 192
-150.432 8.343 529.209 199 198 192
-148.530 8.343 529.209 199 198 192
-146.628 8.343 529.209 199 198 192
-144.727 8.343 529.209 198 197 191
-142.825 8.343 529.209 198 197 191
-140.923 8.343 529.209 199 198 192
-139.022 8.343 529.209 197 196 190
-137.120 8.343 529.209 196 195 189
-135.218 8.343 529.209 198 197 191
-162.206 11.459 726.834 203 204 195
-159.394 11.445 725.924 40 41 32
-156.688 11.437 725.470 49 49 47
-154.081 11.437 725.470 48 48 46
-151.474 11.437 725.470 46 46 44
-148.774 11.430 725.017 43 43 41
-146.168 11.430 725.017 48 48 48
-143.563 11.430 725.017 47 47 47
-3.999 8.343 529.209 63 64 57
-2.098 8.343 529.209 52 53 46
-0.196 8.343 529.209 52 53 46
1.706 8.343 529.209 49 49 47
3.608 8.343 529.209 49 49 47
5.509 8.343 529.209 49 49 47
7.411 8.343 529.209 49 49 47
40.655 11.220 711.673 53 54 47
43.159 11.206 710.801 54 55 48
45.714 11.206 710.801 44 45 38
48.268 11.206 710.801 203 204 197
50.822 11.206 710.801 193 194 187
58.521 11.213 711.236 196 196 194
61.039 11.206 710.801 197 197 195
131.023 8.343 529.209 37 37 37
180.468 8.343 529.209 204 202 201
184.271 8.343 529.209 204 202 201
186.173 8.343 529.209 204 202 201
294.168 11.331 718.728 208 202 198
297.119 11.345 719.619 208 202 198
298.963 11.317 717.838 207 201 197
301.170 11.303 716.951 207 200 200
303.372 11.289 716.066 128 121 124
279.357 8.343 529.209 17 9 16
281.259 8.343 529.209 28 26 27
283.160 8.343 529.209 26 24 25
285.062 8.343 529.209 25 23 24
286.964 8.343 529.209 25 23 24
288.866 8.343 529.209 24 25 20
290.767 8.343 529.209 24 25 18
292.669 8.343 529.209 24 25 18
294.571 8.343 529.209 23 24 17
296.472 8.343 529.209 22 23 17
298.374 8.343 529.209 23 23 21
300.276 8.343 529.209 23 23 21
302.178 8.343 529.209 23 23 21
304.079 8.343 529.209 23 23 21
334.507 8.343 529.209 22 24 10
336.409 8.343 529.209 163 169 151
338.310 8.343 529.209 204 208 193
340.212 8.343 529.209 202 203 193
342.114 8.343 529.209 205 202 195
344.015 8.343 529.209 205 203 197
345.917 8.343 529.209 204 203 197
347.819 8.343 529.209 204 203 197
349.721 8.343 529.209 206 205 199
351.622 8.343 529.209 205 204 198
353.524 8.343 529.209 205 203 202
355.426 8.343 529.209 205 203 202
357.328 8.343 529.209 205 203 202
359.229 8.343 529.209 205 203 202
361.131 8.343 529.209 205 204 198
363.033 8.343 529.209 205 204 198
364.934 8.343 529.209 205 204 198
366.836 8.343 529.209 205 204 198
368.738 8.343 529.209 205 204 198
370.640 8.343 529.209 205 204 198
372.541 8.343 529.209 204 203 197
374.443 8.343 529.209 204 203 197
376.345 8.343 529.209 204 203 197
378.246 8.343 529.209 204 203 197
380.148 8.343 529.209 204 203 197
382.050 8.343 529.209 204 203 197
383.952 8.343 529.209 204 203 197
385.853 8.343 529.209 204 203 197
387.755 8.343 529.209 204 203 197
389.657 8.343 529.209 204 203 197
391.558 8.343 529.209 204 203 197
393.460 8.343 529.209 204 202 201
395.362 8.343 529.209 201 199 198
-641.823 15.092 779.588 11 12 5
-635.744 15.215 785.926 12 13 6
-631.119 15.308 790.748 10 11 4
-621.499 15.143 782.216 10 11 4
-619.106 15.153 782.744 8 9 2
-615.463 15.133 781.689 10 11 4
-613.480 15.153 782.744 10 11 4
-609.845 15.133 781.689 10 11 4
-606.219 15.112 780.637 10 11 4
-601.390 15.062 778.019 10 11 4
-598.594 15.062 778.019 10 11 4
-596.999 15.092 779.588 10 11 4
-596.604 15.153 782.744 10 11 4
-592.591 15.123 781.163 10 11 4
-590.182 15.133 781.689 10 11 4
-587.769 15.143 782.216 11 12 5
-584.958 15.143 782.216 11 12 5
-581.363 15.123 781.163 10 11 4
-578.945 15.133 781.689 9 10 3
-574.974 15.102 780.112 9 10 3
-573.714 15.143 782.216 10 11 4
-570.134 15.123 781.163 12 13 4
-567.709 15.133 781.689 10 11 2
-566.810 15.184 784.332 9 10 1
-563.992 15.184 784.332 9 10 1
-561.933 15.204 785.394 9 10 1
-556.849 15.143 782.216 6 9 2
-553.664 15.133 781.689 9 12 5
-555.346 15.256 788.062 7 10 3
-549.899 15.184 784.332 7 10 3
-553.064 15.350 792.910 8 13 5
-546.850 15.256 788.062 10 13 6
-542.544 15.215 785.926 14 14 10
-536.088 15.112 780.637 40 38 39
-533.283 15.112 780.637 44 39 43
-532.628 15.174 783.802 48 48 45
-529.811 15.174 783.802 48 48 44
-526.284 15.153 782.744 59 59 56
-523.471 15.153 782.744 121 121 118
-524.195 15.256 788.062 108 108 102
-522.428 15.287 789.671 59 60 53
-518.179 15.246 787.527 40 41 34
-515.349 15.246 787.527 40 41 34
-512.867 15.256 788.062 39 40 33
-510.035 15.256 788.062 38 39 32
-507.548 15.266 788.597 32 33 26
-509.215 15.403 795.629 30 31 24
-509.149 15.488 800.018 28 29 22
-509.083 15.573 804.457 24 25 21
-506.895 15.595 805.574 14 14 12
-504.001 15.595 805.574 28 28 26
-501.803 15.617 806.694 29 29 27
-470.198 15.530 802.231 30 31 24
-467.963 15.552 803.343 31 32 25
-577.619 19.682 1016.675 30 30 28
-570.466 19.562 1010.476 30 30 28
-565.358 19.511 1007.842 30 30 28
-564.187 19.596 1012.240 28 28 26
-564.986 19.751 1020.252 28 28 26
-551.350 19.528 1008.719 31 31 29
-553.015 19.716 1018.461 32 32 30
-555.697 19.944 1030.219 31 31 29
-552.486 19.962 1031.135 29 29 27
-549.269 19.979 1032.052 29 29 27
-545.075 19.962 1031.135 27 27 25
-541.370 19.962 1031.135 23 23 21
-538.143 19.979 1032.052 25 25 23
-534.910 19.997 1032.971 27 27 25
-531.198 19.997 1032.971 27 27 25
-527.486 19.997 1032.971 26 26 24
-523.774 19.997 1032.971 26 26 24
-520.062 19.997 1032.971 26 28 21
-516.350 19.997 1032.971 27 28 21
-508.113 19.821 1023.854 33 29 24
-503.545 19.786 1022.050 31 23 19
-500.313 19.803 1022.951 43 30 28
-583.348 23.789 1228.842 40 26 23
-574.517 23.789 1228.842 96 79 79
-737.226 30.763 1589.078 85 74 76
-732.519 30.805 1591.257 77 70 73
-731.820 31.018 1602.247 64 62 63
-728.074 31.104 1606.685 50 50 50
-717.333 30.890 1595.635 47 47 47
-713.562 30.975 1600.037 45 45 45
-235.448 10.740 554.771 39 41 41
-233.008 10.719 553.712 54 56 56
-231.018 10.719 553.712 54 56 56
-228.810 10.709 553.184 56 58 58
-225.264 10.730 554.241 57 57 57
-203.648 10.745 555.037 101 99 100
-198.803 10.699 552.657 114 107 108
-769.167 44.033 2274.562 62 60 56
-758.021 43.861 2265.677 43 42 37
-173.252 10.245 529.209 132 126 122
-166.710 10.553 545.125 196 195 189
-159.940 10.245 529.209 196 195 189
-159.201 10.320 533.100 196 195 189
-156.137 10.245 529.209 197 196 190
-154.235 10.245 529.209 199 198 192
-152.334 10.245 529.209 199 198 192
-150.432 10.245 529.209 199 198 192
-148.530 10.245 529.209 199 198 192
-146.628 10.245 529.209 199 198 192
-144.727 10.245 529.209 198 197 191
-142.825 10.245 529.209 198 197 191
-140.923 10.245 529.209 197 196 190
-139.022 10.245 529.209 198 197 191
-137.120 10.245 529.209 198 197 191
-135.218 10.245 529.209 198 197 191
-170.042 14.071 726.834 196 197 188
-167.325 14.062 726.379 198 199 190
-164.921 14.080 727.289 199 200 191
-162.206 14.071 726.834 198 199 190
-159.494 14.062 726.379 35 36 27
-156.786 14.053 725.924 50 50 48
-154.177 14.053 725.924 45 45 43
-151.569 14.053 725.924 46 46 44
-148.960 14.053 725.924 43 43 41
-146.260 14.044 725.470 38 39 32
-143.653 14.044 725.470 75 76 69
-2.098 10.245 529.209 52 53 46
-0.196 10.245 529.209 51 52 45
1.706 10.245 529.209 50 51 44
38.074 13.769 711.236 52 53 46
40.630 13.769 711.236 52 53 46
43.159 13.760 710.801 56 57 50
45.714 13.760 710.801 56 57 51
48.268 13.760 710.801 166 167 162
50.822 13.760 710.801 197 197 192
53.377 13.760 710.801 195 195 191
55.931 13.760 710.801 201 201 196
58.521 13.769 711.236 197 197 195
61.039 13.760 710.801 145 145 143
131.023 10.245 529.209 37 37 37
138.630 10.245 529.209 34 34 34
293.804 13.897 717.838 205 203 201
296.935 13.922 719.173 204 203 203
298.594 13.879 716.951 202 200 201
301.170 13.879 716.951 215 209 211
303.559 13.871 716.508 193 184 187
283.160 10.245 529.209 26 24 25
285.062 10.245 529.209 25 23 24
286.964 10.245 529.209 25 23 24
288.866 10.245 529.209 24 24 20
290.767 10.245 529.209 24 25 18
292.669 10.245 529.209 23 24 17
294.571 10.245 529.209 23 24 17
296.472 10.245 529.209 23 24 18
298.374 10.245 529.209 23 23 21
300.276 10.245 529.209 23 23 21
304.079 10.245 529.209 23 23 21
338.310 10.245 529.209 204 208 193
340.212 10.245 529.209 202 203 193
342.114 10.245 529.209 205 202 195
344.015 10.245 529.209 205 203 197
345.917 10.245 529.209 204 203 197
347.819 10.245 529.209 204 203 197
349.721 10.245 529.209 206 205 199
351.622 10.245 529.209 205 204 198
353.524 10.245 529.209 205 203 202
355.426 10.245 529.209 205 203 202
357.328 10.245 529.209 205 203 202
359.229 10.245 529.209 205 203 202
361.131 10.245 529.209 205 204 198
363.033 10.245 529.209 205 204 198
364.934 10.245 529.209 205 204 198
366.836 10.245 529.209 205 204 198
368.738 10.245 529.209 205 204 198
370.640 10.245 529.209 205 204 198
372.541 10.245 529.209 204 203 197
374.443 10.245 529.209 204 203 197
376.345 10.245 529.209 204 203 197
378.246 10.245 529.209 204 203 197
380.148 10.245 529.209 204 203 197
382.050 10.245 529.209 204 203 197
383.952 10.245 529.209 204 203 197
385.853 10.245 529.209 206 203 198
387.755 10.245 529.209 205 202 197
389.657 10.245 529.209 204 201 196
391.558 10.245 529.209 205 201 196
393.460 10.245 529.209 203 201 197
395.362 10.245 529.209 205 203 199
-640.961 17.869 778.541 9 10 3
-637.736 17.857 778.019 10 11 4
-630.617 17.893 779.588 12 13 6
-627.815 17.893 779.588 11 12 5
-625.855 17.918 780.637 11 12 5
-624.732 17.966 782.744 10 11 4
-619.411 17.893 779.588 9 10 3
-616.610 17.893 779.588 10 11 4
-613.808 17.893 779.588 11 12 5
-611.418 17.906 780.112 10 11 4
-608.205 17.893 779.588 10 11 4
-605.404 17.893 779.588 10 11 4
-600.987 17.846 777.498 11 12 5
-597.792 17.834 776.977 11 12 5
-595.000 17.834 776.977 9 10 3
-594.198 17.893 779.588 9 10 3
-590.999 17.881 779.064 8 9 2
-588.595 17.893 779.588 11 12 5
-585.794 17.893 779.588 10 11 4
-582.992 17.893 779.588 9 10 3
-580.191 17.893 779.588 8 9 2
-577.389 17.893 779.588 9 10 3
-573.816 17.869 778.541 10 11 4
-571.786 17.893 779.588 12 13 6
-568.985 17.893 779.588 12 13 4
