ply
format ascii 1.0
element vertex 1348
property float x
property float y
property float z
property uchar red
property uchar green
property uchar blue
end_header
392.751 -203.246 604.181 190 190 190
394.922 -203.246 604.181 188 188 188
397.093 -203.246 604.181 186 186 186
399.264 -203.246 604.181 184 184 182
401.436 -203.246 604.181 184 184 182
403.607 -203.246 604.181 182 182 180
405.778 -203.246 604.181 180 180 178
407.949 -203.246 604.181 179 179 177
410.120 -203.246 604.181 180 178 177
393.669 -192.043 570.879 176 174 173
395.721 -192.043 570.879 176 174 173
397.772 -192.043 570.879 174 172 171
399.824 -192.043 570.879 173 171 170
401.875 -192.043 570.879 172 170 169
427.489 -203.246 604.181 170 168 169
429.660 -203.246 604.181 170 168 165
410.081 -192.043 570.879 168 163 176
412.133 -192.043 570.879 155 150 178
414.184 -192.043 570.879 24 18 50
416.235 -192.043 570.879 23 19 43
418.287 -192.043 570.879 26 24 35
420.338 -192.043 570.879 23 22 24
422.390 -192.043 570.879 19 19 19
424.441 -192.043 570.879 15 15 15
428.544 -192.043 570.879 10 10 10
430.596 -192.043 570.879 11 11 11
432.647 -192.043 570.879 12 12 12
434.699 -192.043 570.879 11 11 11
436.750 -192.043 570.879 11 11 11
-690.132 -274.193 823.883 9 10 1
-687.660 -274.387 824.468 11 12 3
-684.211 -274.193 823.883 12 13 4
-680.767 -273.998 823.298 11 12 3
-678.290 -274.193 823.883 10 11 3
-675.329 -274.193 823.883 11 12 5
-672.847 -274.387 824.468 11 12 5
-669.408 -274.193 823.883 10 11 4
-666.447 -274.193 823.883 10 11 4
-663.487 -274.193 823.883 10 11 4
-660.526 -274.193 823.883 10 11 4
-657.566 -274.193 823.883 10 11 4
-654.605 -274.193 823.883 9 10 3
-651.182 -273.998 823.298 9 10 3
-647.304 -273.610 822.131 9 10 3
-643.894 -273.416 821.549 9 10 3
-640.941 -273.416 821.549 9 10 3
-638.441 -273.610 822.131 9 10 3
-635.037 -273.416 821.549 9 10 3
-633.431 -273.998 823.298 9 10 3
-629.578 -273.610 822.131 9 10 3
-627.514 -273.998 823.298 12 13 6
-624.999 -274.193 823.883 12 13 6
-621.596 -273.998 823.298 10 11 4
-619.077 -274.193 823.883 9 10 3
-616.117 -274.193 823.883 9 10 3
-613.156 -274.193 823.883 9 10 3
-610.195 -274.193 823.883 9 10 3
-606.373 -273.804 822.714 10 11 2
-603.417 -273.804 822.714 11 12 3
-600.035 -273.610 822.131 9 10 1
-597.928 -273.998 823.298 11 12 3
-594.548 -273.804 822.714 11 12 3
-592.011 -273.998 823.298 8 11 4
-589.053 -273.998 823.298 9 12 6
-584.849 -273.416 821.549 9 11 9
-581.485 -273.222 820.967 18 20 20
-579.766 -273.804 822.714 43 44 43
-577.218 -273.998 823.298 47 47 45
-574.668 -274.193 823.883 45 45 43
-571.707 -274.193 823.883 36 36 34
-568.747 -274.193 823.883 19 19 17
-566.994 -274.778 825.642 24 24 24
-568.070 -276.748 831.560 29 29 29
-565.487 -276.946 832.157 35 35 35
-562.094 -276.748 831.560 48 48 48
-558.705 -276.549 830.965 50 50 50
-552.552 -274.974 826.230 46 47 40
-553.526 -276.946 832.157 27 28 21
-557.737 -280.569 843.043 12 13 6
-554.708 -280.569 843.043 14 15 8
-552.080 -280.773 843.656 11 19 10
-549.048 -280.773 843.656 7 15 6
-545.619 -280.569 843.043 10 14 6
-543.380 -280.977 844.270 13 14 7
-541.133 -281.387 845.500 14 13 7
-537.312 -280.977 844.270 23 22 16
-533.501 -280.569 843.043 34 33 27
-618.633 -342.862 1030.219 30 28 27
-616.025 -343.472 1032.052 31 29 28
-613.408 -344.085 1033.892 33 31 30
-610.236 -344.392 1034.814 30 31 24
-606.518 -344.392 1034.814 29 30 23
-602.799 -344.392 1034.814 28 28 24
-599.616 -344.699 1035.738 27 27 27
-599.641 -346.867 1042.252 27 26 28
-597.507 -347.805 1045.069 29 29 27
-591.619 -346.556 1041.317 30 30 28
-589.465 -347.491 1044.128 28 28 26
-585.712 -347.491 1044.128 27 27 25
-578.834 -345.625 1038.520 26 27 20
-576.651 -346.556 1041.317 32 24 20
-569.840 -344.699 1035.738 47 29 29
-566.624 -345.007 1036.664 54 33 34
-563.402 -345.316 1037.591 42 26 25
-559.674 -345.316 1037.591 37 30 33
-693.690 -430.874 1294.673 39 33 36
-691.353 -432.321 1299.022 39 37 38
-691.330 -435.246 1307.809 39 39 39
-686.630 -435.246 1307.809 42 40 39
-678.869 -433.292 1301.938 50 47 47
-671.177 -431.355 1296.119 59 54 55
-668.012 -432.321 1299.022 89 81 82
-661.862 -431.355 1296.119 74 63 65
-656.471 -430.874 1294.673 71 64 58
-654.741 -432.806 1300.478 77 71 65
-805.362 -536.199 1611.148 83 77 71
-799.573 -536.199 1611.148 83 77 71
-792.682 -535.455 1608.913 77 73 73
-786.900 -535.455 1608.913 79 75 75
-780.037 -534.713 1606.685 80 76 76
-776.414 -536.199 1611.148 82 78 78
-769.555 -535.455 1608.913 86 82 82
-764.835 -536.199 1611.148 82 79 74
-759.045 -536.199 1611.148 80 77 72
-753.255 -536.199 1611.148 80 77 72
-747.465 -536.199 1611.148 78 75 70
-741.676 -536.199 1611.148 73 67 66
-734.865 -535.455 1608.913 77 72 72
-729.084 -535.455 1608.913 74 70 72
-723.302 -535.455 1608.913 55 52 57
-716.527 -534.713 1606.685 51 48 54
-711.739 -535.455 1608.913 53 51 58
-705.957 -535.455 1608.913 57 55 62
-700.176 -535.455 1608.913 54 52 59
-695.358 -536.199 1611.148 50 48 55
-688.612 -535.455 1608.913 50 48 58
-682.831 -535.455 1608.913 52 50 60
-677.049 -535.455 1608.913 52 50 60
-671.267 -535.455 1608.913 51 49 59
-666.410 -536.199 1611.148 55 53 63
-660.620 -536.199 1611.148 59 57 67
-654.831 -536.199 1611.148 67 65 75
-649.041 -536.199 1611.148 60 58 68
-643.251 -536.199 1611.148 58 56 66
-637.461 -536.199 1611.148 58 56 65
-633.431 -537.692 1615.636 55 53 62
-625.882 -536.199 1611.148 54 52 61
-620.092 -536.199 1611.148 55 53 62
-614.303 -536.199 1611.148 54 52 59
-608.513 -536.199 1611.148 57 55 62
-604.402 -537.692 1615.636 55 53 60
-598.596 -537.692 1615.636 58 56 63
-593.617 -538.442 1617.889 62 60 67
-587.804 -538.442 1617.889 68 68 68
-584.435 -540.705 1624.687 70 70 70
-583.500 -545.287 1638.456 76 76 76
-577.612 -545.287 1638.456 96 96 96
-573.344 -546.832 1643.097 94 92 94
-569.052 -548.385 1647.765 75 73 74
-563.931 -549.165 1650.109 77 75 72
-558.796 -549.947 1652.460 64 63 57
-588.040 -584.944 1757.616 61 56 52
-598.034 -601.344 1806.895 62 56 52
-622.573 -632.890 1901.683 61 55 51
-601.086 -631.854 1898.571 43 41 40
-631.470 -671.414 2017.438 33 31 30
-527.432 -602.282 1809.714 49 48 42
-519.308 -600.409 1804.085 49 48 42
-512.825 -600.409 1804.085 49 48 42
-507.131 -601.344 1806.895 49 47 44
-501.419 -602.282 1809.714 49 47 48
-491.846 -598.547 1798.491 49 46 49
-485.383 -598.547 1798.491 48 46 45
-474.506 -593.031 1781.915 50 48 47
-476.894 -604.168 1815.378 48 46 45
-469.635 -603.224 1812.542 48 46 45
-463.122 -603.224 1812.542 49 48 42
-455.186 -601.344 1806.895 49 48 42
-448.693 -601.344 1806.895 49 48 42
-439.462 -597.621 1795.707 48 47 41
-433.009 -597.621 1795.707 50 49 43
-427.881 -599.477 1801.284 47 47 45
-418.161 -594.858 1787.406 46 46 44
-414.291 -598.547 1798.491 43 43 41
-405.315 -594.858 1787.406 31 31 29
-400.125 -596.697 1792.931 29 27 26
-390.663 -592.121 1779.182 39 37 36
-387.239 -596.697 1792.931 48 46 45
-381.386 -597.621 1795.707 50 48 47
-181.310 -389.569 1170.562 49 47 46
-177.282 -389.963 1171.744 50 48 47
-173.072 -389.963 1171.744 48 46 45
-74.064 -189.992 570.879 50 48 49
-72.013 -189.992 570.879 50 48 49
-69.961 -189.992 570.879 50 48 49
-67.910 -189.992 570.879 49 47 48
-65.858 -189.992 570.879 48 46 47
-63.807 -189.992 570.879 50 48 49
-61.755 -189.992 570.879 51 49 50
-59.704 -189.992 570.879 50 48 49
-57.652 -189.992 570.879 50 48 49
-55.601 -189.992 570.879 49 49 47
-43.292 -189.992 570.879 52 50 49
-41.241 -189.992 570.879 51 49 48
-39.189 -189.992 570.879 51 49 48
-37.138 -189.992 570.879 52 52 50
-35.086 -189.992 570.879 52 52 50
-33.035 -189.992 570.879 51 51 49
-30.983 -189.992 570.879 52 52 50
-28.932 -189.992 570.879 50 48 47
-26.880 -189.992 570.879 51 49 48
-24.829 -189.992 570.879 56 54 53
-22.777 -189.992 570.879 54 52 51
-21.935 -201.075 604.181 53 51 51
-19.764 -201.075 604.181 55 53 54
-17.593 -201.075 604.181 57 55 56
8.461 -201.075 604.181 72 61 65
10.632 -201.075 604.181 229 218 222
12.803 -201.075 604.181 235 224 228
18.874 -196.470 590.344 225 220 220
21.017 -196.670 590.946 221 218 217
23.141 -196.670 590.946 222 221 219
25.264 -196.670 590.946 222 221 215
27.374 -196.570 590.645 223 222 216
29.571 -197.071 592.152 223 222 216
250.436 -387.225 1163.517 61 59 60
253.094 -384.908 1156.557 62 60 61
258.798 -387.225 1163.517 62 60 61
226.053 -243.727 732.340 224 222 221
228.684 -243.727 732.340 224 222 221
231.024 -243.419 731.417 228 221 224
233.506 -243.266 730.956 232 225 228
235.984 -243.113 730.495 186 179 182
238.910 -243.419 731.417 58 51 54
216.889 -201.075 604.181 59 57 56
219.061 -201.075 604.181 53 50 53
221.232 -201.075 604.181 42 39 42
223.403 -201.075 604.181 75 72 75
225.574 -201.075 604.181 194 191 193
227.745 -201.075 604.181 228 226 225
243.913 -189.992 570.879 60 55 57
245.964 -189.992 570.879 58 55 57
248.016 -189.992 570.879 57 53 54
250.067 -189.992 570.879 59 52 53
252.119 -189.992 570.879 55 51 51
254.170 -189.992 570.879 54 54 52
256.221 -189.992 570.879 52 54 52
305.457 -189.992 570.879 214 215 204
307.508 -189.992 570.879 218 218 215
309.559 -189.992 570.879 217 215 214
311.611 -189.992 570.879 216 214 213
313.662 -189.992 570.879 215 213 212
315.714 -189.992 570.879 215 213 212
317.765 -189.992 570.879 217 212 212
319.817 -189.992 570.879 216 210 210
321.868 -189.992 570.879 216 210 211
323.920 -189.992 570.879 217 210 211
325.971 -189.992 570.879 213 211 210
328.023 -189.992 570.879 213 211 210
330.074 -189.992 570.879 209 207 206
332.126 -189.992 570.879 209 207 206
334.177 -189.992 570.879 209 208 202
336.228 -189.992 570.879 209 208 202
338.280 -189.992 570.879 208 206 205
340.331 -189.992 570.879 208 206 207
342.383 -189.992 570.879 206 204 203
344.434 -189.992 570.879 206 204 203
346.486 -189.992 570.879 205 203 202
348.537 -189.992 570.879 204 202 201
350.589 -189.992 570.879 203 201 200
352.640 -189.992 570.879 204 202 201
354.692 -189.992 570.879 203 201 200
356.743 -189.992 570.879 201 199 198
358.795 -189.992 570.879 201 199 198
360.846 -189.992 570.879 199 198 192
386.238 -201.075 604.181 198 195 197
388.409 -201.075 604.181 191 188 192
390.580 -201.075 604.181 194 192 193
392.751 -201.075 604.181 189 187 185
394.922 -201.075 604.181 190 188 187
397.093 -201.075 604.181 188 186 184
399.264 -201.075 604.181 185 183 182
401.436 -201.075 604.181 186 184 183
403.607 -201.075 604.181 184 182 181
405.778 -201.075 604.181 183 181 180
407.949 -201.075 604.181 182 180 179
410.120 -201.075 604.181 182 180 179
393.669 -189.992 570.879 179 177 176
395.721 -189.992 570.879 177 176 170
397.772 -189.992 570.879 177 176 170
399.824 -189.992 570.879 176 175 169
425.318 -201.075 604.181 174 173 167
427.489 -201.075 604.181 174 172 170
429.660 -201.075 604.181 172 170 170
412.926 -191.310 574.840 171 168 173
412.133 -189.992 570.879 172 168 188
414.184 -189.992 570.879 52 47 76
416.235 -189.992 570.879 36 31 59
418.287 -189.992 570.879 29 26 41
420.338 -189.992 570.879 29 28 30
422.390 -189.992 570.879 24 24 24
424.441 -189.992 570.879 21 21 21
432.668 -192.742 579.145 20 20 20
428.544 -189.992 570.879 17 17 17
430.596 -189.992 570.879 14 14 14
432.647 -189.992 570.879 15 15 15
434.699 -189.992 570.879 16 16 16
436.750 -189.992 570.879 16 16 16
-690.132 -271.232 823.883 12 13 4
-687.660 -271.425 824.468 11 12 3
-684.211 -271.232 823.883 11 12 3
-681.251 -271.232 823.883 13 14 5
-678.290 -271.232 823.883 9 10 2
-675.329 -271.232 823.883 11 12 5
-672.847 -271.425 824.468 11 12 5
-669.408 -271.232 823.883 12 13 6
-666.447 -271.232 823.883 12 13 6
-663.487 -271.232 823.883 10 11 4
-660.526 -271.232 823.883 10 11 4
-657.566 -271.232 823.883 10 11 4
-654.605 -271.232 823.883 9 10 3
-651.182 -271.039 823.298 9 10 3
-647.304 -270.655 822.131 9 10 3
-644.350 -270.655 822.131 9 10 3
-641.396 -270.655 822.131 9 10 3
-638.894 -270.847 822.714 9 10 3
-635.487 -270.655 822.131 9 10 3
-633.431 -271.039 823.298 9 10 3
-630.025 -270.847 822.714 9 10 3
-627.959 -271.232 823.883 10 11 4
-624.999 -271.232 823.883 10 11 4
-621.596 -271.039 823.298 9 10 3
-619.077 -271.232 823.883 9 10 3
-616.117 -271.232 823.883 9 10 3
-613.156 -271.232 823.883 10 11 4
-610.195 -271.232 823.883 10 11 4
-606.804 -271.039 823.298 10 11 2
-603.845 -271.039 823.298 11 12 3
-600.461 -270.847 822.714 9 10 1
-598.353 -271.232 823.883 11 12 3
-594.970 -271.039 823.298 11 12 3
-592.432 -271.232 823.883 9 12 5
-589.471 -271.232 823.883 8 11 5
-584.849 -270.464 821.549 8 10 8
-581.485 -270.272 820.967 17 19 19
-579.766 -270.847 822.714 43 44 43
-577.218 -271.039 823.298 48 48 46
-574.668 -271.232 823.883 46 46 44
-571.707 -271.232 823.883 37 37 35
-568.747 -271.232 823.883 19 19 17
-566.188 -271.425 824.468 24 24 24
-567.257 -273.368 830.370 29 29 29
-564.677 -273.563 830.965 33 33 33
-560.888 -273.172 829.776 47 47 47
-557.906 -273.172 829.776 48 48 48
-552.159 -271.811 825.642 46 47 40
-552.733 -273.563 830.965 28 29 22
-556.928 -277.137 841.819 13 14 7
-554.305 -277.338 842.430 12 13 6
-551.678 -277.540 843.043 11 19 10
-548.649 -277.540 843.043 7 15 6
-545.223 -277.338 842.430 10 14 6
-542.590 -277.540 843.043 13 14 7
-540.346 -277.944 844.270 14 13 7
-536.531 -277.540 843.043 23 22 16
-533.114 -277.338 842.430 36 35 29
-530.472 -277.540 843.043 34 33 27
-618.633 -339.160 1030.219 32 30 29
-616.025 -339.764 1032.052 33 31 30
-613.955 -340.673 1034.814 34 32 31
-610.781 -340.977 1035.738 30 31 25
-607.059 -340.977 1035.738 29 30 23
-603.337 -340.977 1035.738 28 28 24
-599.616 -340.977 1035.738 27 27 27
-601.804 -344.359 1046.011 27 26 28
-598.585 -344.670 1046.955 29 29 27
-593.751 -344.049 1045.069 30 30 28
-590.528 -344.359 1046.011 30 30 28
-586.769 -344.359 1046.011 28 28 26
-579.873 -342.506 1040.383 26 27 20
-578.208 -343.739 1044.128 32 24 21
-570.349 -341.282 1036.664 47 28 28
-567.131 -341.587 1037.591 60 39 40
-563.907 -341.893 1038.520 44 28 27
-561.179 -342.506 1040.383 37 30 33
-694.465 -426.698 1296.119 39 33 36
-692.905 -428.613 1301.938 39 37 38
-693.676 -432.007 1312.247 41 41 41
-688.182 -431.519 1310.765 44 42 41
-681.162 -430.061 1306.336 55 52 51
-671.177 -426.698 1296.119 66 61 62
-668.012 -427.653 1299.022 109 101 102
-661.123 -426.222 1294.673 81 70 72
-656.471 -426.222 1294.673 94 81 86
-805.362 -530.409 1611.148 101 87 93
-798.464 -529.673 1608.913 106 93 99
-789.397 -527.479 1602.247 115 95 100
-782.559 -526.751 1600.037 118 97 102
-776.809 -526.751 1600.037 119 98 103
-774.263 -528.940 1606.685 115 94 99
-766.367 -527.479 1602.247 123 101 107
-765.898 -531.147 1613.389 132 111 112
-760.101 -531.147 1613.389 132 111 112
-756.407 -532.628 1617.889 124 103 104
-748.505 -531.147 1613.389 122 100 101
-738.598 -528.208 1604.463 106 86 89
-732.833 -528.208 1604.463 88 74 77
-727.067 -528.208 1604.463 81 73 76
-720.305 -527.479 1602.247 62 59 63
-714.547 -527.479 1602.247 58 57 62
-709.770 -528.208 1604.463 56 54 61
-704.004 -528.208 1604.463 55 53 60
-698.239 -528.208 1604.463 55 53 60
-694.394 -529.673 1608.913 53 51 58
-687.658 -528.940 1606.685 56 55 59
-681.885 -528.940 1606.685 60 59 63
-676.111 -528.940 1606.685 56 55 59
-671.267 -529.673 1608.913 52 51 55
-665.486 -529.673 1608.913 59 57 66
-660.620 -530.409 1611.148 56 54 64
-654.831 -530.409 1611.148 57 55 65
-649.041 -530.409 1611.148 54 52 62
-643.251 -530.409 1611.148 55 53 63
-637.461 -530.409 1611.148 54 52 61
-633.431 -531.886 1615.636 53 51 60
-625.882 -530.409 1611.148 54 52 61
-620.092 -530.409 1611.148 52 50 59
-614.303 -530.409 1611.148 52 50 56
-608.513 -530.409 1611.148 55 53 59
-603.562 -531.147 1613.389 54 52 58
-598.596 -531.886 1615.636 60 58 64
-592.791 -531.886 1615.636 67 65 70
-586.985 -531.886 1615.636 69 69 69
-584.435 -534.866 1624.687 74 73 74
-583.500 -539.399 1638.456 75 74 75
-577.612 -539.399 1638.456 92 91 91
-572.533 -540.162 1640.773 88 85 88
-568.244 -541.694 1645.428 66 64 65
-563.130 -542.464 1647.765 81 79 76
-558.796 -544.009 1652.460 65 64 58
-585.379 -576.010 1749.663 63 59 54
-596.177 -593.004 1801.284 50 44 40
-593.390 -596.710 1812.542 64 58 54
-615.739 -626.057 1901.683 61 55 51
-607.909 -625.032 1898.571 62 56 52
-601.086 -625.032 1898.571 53 47 44
-632.570 -665.321 2020.952 38 33 31
-520.117 -594.851 1806.895 49 48 42
-513.624 -594.851 1806.895 51 50 44
-507.922 -595.779 1809.714 49 48 42
-502.202 -596.710 1812.542 48 47 41
-491.085 -591.168 1795.707 50 49 43
-484.632 -591.168 1795.707 48 47 41
-474.506 -586.627 1781.915 50 49 43
-479.143 -600.463 1823.941 49 48 42
-472.589 -600.463 1823.941 49 48 42
-464.574 -598.581 1818.224 50 49 43
-455.896 -595.779 1809.714 50 49 43
-449.393 -595.779 1809.714 50 49 43
-438.783 -590.254 1792.931 49 48 42
-433.009 -591.168 1795.707 49 48 42
-426.556 -591.168 1795.707 50 48 47
-416.876 -586.627 1781.915 50 48 47
-413.011 -590.254 1792.931 49 47 46
-404.070 -586.627 1781.915 47 45 44
-398.278 -587.530 1784.656 35 33 32
-389.468 -583.936 1773.741 28 26 25
-384.270 -585.728 1779.182 38 36 35
-378.456 -586.627 1781.915 48 46 45
-176.925 -384.974 1169.382 49 47 46
-172.723 -384.974 1169.382 48 46 45
-168.520 -384.974 1169.382 44 35 31
-164.318 -384.974 1169.382 42 35 31
-160.440 -385.752 1171.744 51 48 43
-74.064 -187.940 570.879 50 48 48
-72.013 -187.940 570.879 50 48 49
-69.961 -187.940 570.879 50 48 49
-67.910 -187.940 570.879 50 48 49
-65.858 -187.940 570.879 50 48 49
-63.807 -187.940 570.879 51 49 48
-61.755 -187.940 570.879 51 49 48
-59.704 -187.940 570.879 52 50 49
-57.652 -187.940 570.879 52 50 49
-55.601 -187.940 570.879 53 51 50
-43.292 -187.940 570.879 53 51 50
-41.241 -187.940 570.879 53 51 50
-39.189 -187.940 570.879 51 49 48
-37.138 -187.940 570.879 53 51 50
-35.086 -187.940 570.879 54 52 51
-33.035 -187.940 570.879 53 51 50
-30.983 -187.940 570.879 53 51 50
-28.932 -187.940 570.879 54 53 48
-26.880 -187.940 570.879 53 51 47
-24.829 -187.940 570.879 54 53 48
-24.106 -198.903 604.181 54 52 48
-21.935 -198.903 604.181 54 52 49
-19.764 -198.903 604.181 55 53 52
1.947 -198.903 604.181 62 55 56
4.119 -198.903 604.181 163 156 157
6.290 -198.903 604.181 230 222 223
8.461 -198.903 604.181 229 222 223
15.196 -201.847 613.122 224 217 218
17.326 -200.997 610.540 224 218 214
21.737 -201.209 611.184 224 218 214
248.690 -380.373 1155.405 61 59 58
211.493 -313.028 950.841 64 62 61
140.900 -198.903 604.181 224 220 220
226.053 -241.095 732.340 223 221 220
228.684 -241.095 732.340 223 221 220
231.024 -240.791 731.417 228 220 223
233.359 -240.488 730.495 227 219 222
235.835 -240.336 730.036 234 226 229
238.458 -240.336 730.036 50 42 45
212.547 -198.903 604.181 53 51 50
214.718 -198.903 604.181 52 50 49
216.889 -198.903 604.181 78 76 75
219.061 -198.903 604.181 174 172 171
221.232 -198.903 604.181 225 223 222
223.403 -198.903 604.181 227 225 224
245.964 -187.940 570.879 58 56 54
248.016 -187.940 570.879 57 56 48
250.067 -187.940 570.879 56 55 51
252.119 -187.940 570.879 55 53 49
254.170 -187.940 570.879 55 53 49
256.221 -187.940 570.879 53 51 47
305.457 -187.940 570.879 216 218 204
307.508 -187.940 570.879 217 218 211
309.559 -187.940 570.879 216 214 213
311.611 -187.940 570.879 216 214 213
313.662 -187.940 570.879 215 213 212
315.714 -187.940 570.879 215 213 212
319.817 -187.940 570.879 216 209 210
321.868 -187.940 570.879 217 210 211
323.920 -187.940 570.879 217 210 211
325.971 -187.940 570.879 213 211 210
328.023 -187.940 570.879 213 211 210
330.074 -187.940 570.879 210 208 207
332.126 -187.940 570.879 210 208 207
334.177 -187.940 570.879 209 208 202
336.228 -187.940 570.879 209 208 202
338.280 -187.940 570.879 208 206 205
340.331 -187.940 570.879 208 206 207
342.383 -187.940 570.879 206 204 203
344.434 -187.940 570.879 206 204 203
346.486 -187.940 570.879 207 205 204
348.537 -187.940 570.879 206 204 203
350.589 -187.940 570.879 204 202 201
352.640 -187.940 570.879 204 202 201
354.692 -187.940 570.879 203 201 200
356.743 -187.940 570.879 201 199 198
358.795 -187.940 570.879 201 199 198
360.846 -187.940 570.879 199 198 194
388.409 -198.903 604.181 204 204 193
390.580 -198.903 604.181 193 193 177
392.751 -198.903 604.181 186 186 174
394.922 -198.903 604.181 190 189 183
397.093 -198.903 604.181 188 186 186
399.264 -198.903 604.181 187 185 184
401.436 -198.903 604.181 187 185 184
403.607 -198.903 604.181 187 185 184
405.778 -198.903 604.181 185 183 182
407.949 -198.903 604.181 184 182 181
410.120 -198.903 604.181 184 182 181
393.555 -188.870 573.703 182 180 179
393.669 -187.940 570.879 180 178 177
395.721 -187.940 570.879 179 178 172
397.772 -187.940 570.879 179 178 172
399.824 -187.940 570.879 180 179 173
401.875 -187.940 570.879 178 177 171
403.927 -187.940 570.879 175 174 166
429.660 -198.903 604.181 173 172 166
410.081 -187.940 570.879 174 172 173
412.133 -187.940 570.879 173 169 187
414.184 -187.940 570.879 108 103 132
416.235 -187.940 570.879 28 23 51
418.287 -187.940 570.879 33 30 45
420.338 -187.940 570.879 34 33 35
422.390 -187.940 570.879 28 28 28
424.441 -187.940 570.879 27 27 27
426.493 -187.940 570.879 27 27 27
428.544 -187.940 570.879 24 25 25
430.596 -187.940 570.879 24 24 24
432.647 -187.940 570.879 24 24 24
434.699 -187.940 570.879 25 25 25
436.750 -187.940 570.879 23 23 23
-690.132 -268.271 823.883 10 11 2
-687.660 -268.462 824.468 12 13 4
-684.211 -268.271 823.883 10 11 2
-681.251 -268.271 823.883 10 11 2
-678.290 -268.271 823.883 10 11 3
-675.329 -268.271 823.883 11 12 5
-673.325 -268.653 825.054 12 13 6
-669.884 -268.462 824.468 9 10 3
-666.921 -268.462 824.468 12 13 6
-663.487 -268.271 823.883 9 10 1
-660.526 -268.271 823.883 10 11 2
-657.566 -268.271 823.883 12 13 4
-654.605 -268.271 823.883 10 11 2
-651.644 -268.271 823.883 8 9 0
-647.763 -267.891 822.714 8 9 2
-644.350 -267.701 822.131 9 10 3
-641.851 -267.891 822.714 10 11 4
-638.894 -267.891 822.714 10 11 4
-635.938 -267.891 822.714 10 11 4
-633.880 -268.271 823.883 9 10 3
-630.025 -267.891 822.714 10 11 4
-627.959 -268.271 823.883 11 12 5
-624.999 -268.271 823.883 9 10 3
-622.038 -268.271 823.883 8 9 2
-619.517 -268.462 824.468 9 10 3
-616.555 -268.462 824.468 9 10 3
-613.156 -268.271 823.883 9 10 3
-610.629 -268.462 824.468 9 10 3
-606.804 -268.081 823.298 10 11 4
-603.845 -268.081 823.298 10 11 4
-600.887 -268.081 823.298 9 10 3
-598.353 -268.271 823.883 9 10 3
-594.970 -268.081 823.298 11 12 5
-592.432 -268.271 823.883 10 11 4
-589.471 -268.271 823.883 10 11 5
-585.263 -267.701 822.131 13 13 11
-581.485 -267.322 820.967 15 15 15
-579.766 -267.891 822.714 42 41 43
-577.218 -268.081 823.298 47 47 47
-574.260 -268.081 823.298 47 47 45
-571.707 -268.271 823.883 38 39 32
-568.747 -268.271 823.883 19 20 13
-565.786 -268.271 823.883 26 26 26
-566.851 -270.190 829.776 29 29 29
-563.869 -270.190 829.776 31 31 31
-559.687 -269.612 827.999 45 45 45
-557.109 -269.804 828.590 46 46 46
-552.159 -268.844 825.642 49 46 41
-552.337 -270.384 830.370 32 32 26
-555.718 -273.516 839.990 13 14 7
-553.903 -274.112 841.819 9 14 6
-551.678 -274.510 843.043 17 18 11
-548.649 -274.510 843.043 11 12 5
-544.827 -274.112 841.819 13 13 9
-542.196 -274.311 842.430 12 12 12
-540.346 -274.910 844.270 12 11 13
-536.531 -274.510 843.043 20 20 20
-532.727 -274.112 841.819 32 32 32
-530.087 -274.311 842.430 33 33 33
-615.898 -333.975 1025.665 32 30 29
-614.931 -335.458 1030.219 34 32 31
-612.862 -336.354 1032.971 33 31 30
-609.693 -336.654 1033.892 30 30 28
-606.518 -336.954 1034.814 28 28 26
-602.799 -336.954 1034.814 26 26 24
-599.616 -337.255 1035.738 27 27 25
-601.804 -340.600 1046.011 28 28 26
-598.585 -340.908 1046.955 29 29 27
-593.751 -340.294 1045.069 31 31 29
-591.061 -340.908 1046.955 29 29 27
-586.769 -340.600 1046.011 29 29 27
-579.873 -338.768 1040.383 31 30 24
-577.688 -339.682 1043.189 30 26 21
-569.840 -337.255 1035.738 39 29 26
-566.624 -337.557 1036.664 61 45 44
-563.402 -337.859 1037.591 47 26 27
-560.677 -338.464 1039.450 37 30 31
-702.312 -426.809 1310.765 41 34 35
-700.770 -428.747 1316.716 44 37 38
-696.829 -429.234 1318.212 46 39 40
-692.092 -429.234 1318.212 40 44 39
-686.575 -428.747 1316.716 58 53 52
-673.435 -423.460 1300.478 85 70 75
-674.051 -426.809 1310.765 191 171 180
-661.123 -421.569 1294.673 168 151 161
-656.471 -421.569 1294.673 213 201 211
-663.670 -429.234 1318.212 226 215 225
-794.330 -517.433 1589.078 234 223 233
-794.058 -521.001 1600.037 240 231 239
-782.909 -517.433 1589.078 251 239 244
-777.199 -517.433 1589.078 253 242 247
-769.381 -516.019 1584.736 255 246 251
-771.059 -521.001 1600.037 255 248 253
-762.156 -518.854 1593.443 255 247 252
-765.898 -525.349 1613.389 255 248 253
-760.101 -525.349 1613.389 255 246 251
-756.407 -526.814 1617.889 255 249 254
-747.465 -524.619 1611.148 255 247 252
-736.561 -521.001 1600.037 255 240 253
-730.811 -521.001 1600.037 180 156 171
-724.063 -520.284 1597.833 83 71 77
-718.321 -520.284 1597.833 73 69 71
-711.599 -519.568 1595.635 63 63 62
-708.790 -521.721 1602.247 55 54 56
-703.032 -521.721 1602.247 54 53 55
-698.239 -522.442 1604.463 53 52 54
-695.358 -524.619 1611.148 54 53 55
-687.658 -523.166 1606.685 54 52 58
-681.885 -523.166 1606.685 57 55 61
-676.111 -523.166 1606.685 55 53 59
-671.267 -523.892 1608.913 58 57 63
-665.486 -523.892 1608.913 61 58 64
-660.620 -524.619 1611.148 63 59 66
-654.831 -524.619 1611.148 69 65 72
-649.041 -524.619 1611.148 65 62 68
-643.251 -524.619 1611.148 63 59 65
-637.461 -524.619 1611.148 62 59 65
-633.431 -526.081 1615.636 65 61 67
-625.882 -524.619 1611.148 68 64 70
-620.092 -524.619 1611.148 67 64 70
-613.451 -523.892 1608.913 67 65 66
-607.669 -523.892 1608.913 69 67 68
-602.723 -524.619 1611.148 66 64 65
-596.934 -524.619 1611.148 67 65 66
-591.966 -525.349 1613.389 69 67 68
-586.168 -525.349 1613.389 70 68 69
-582.802 -527.550 1620.149 74 72 73
-582.677 -532.759 1636.145 77 75 76
-576.797 -532.759 1636.145 87 85 86
-571.724 -533.511 1638.456 89 86 89
-567.439 -535.023 1643.097 69 67 68
-563.130 -536.542 1647.765 86 84 81
-558.002 -537.306 1650.109 65 64 58
-580.129 -564.613 1733.971 63 59 55
-581.724 -572.312 1757.616 49 43 39
-586.064 -582.910 1790.165 61 55 51
-617.765 -621.260 1907.939 63 57 53
-610.908 -621.260 1907.939 63 57 53
-604.052 -621.260 1907.939 61 55 51
-628.192 -653.505 2006.966 42 37 34
-637.525 -670.916 2060.438 37 35 34
-608.990 -672.110 2064.104 51 50 44
-516.897 -584.715 1795.707 50 49 43
-511.235 -585.622 1798.491 51 50 44
-503.991 -584.715 1795.707 49 48 42
-501.419 -589.276 1809.714 48 47 41
-486.566 -579.334 1779.182 50 49 43
-480.172 -579.334 1779.182 49 48 42
-470.890 -575.802 1768.333 51 50 44
-478.391 -592.976 1821.078 50 49 43
-471.107 -592.047 1818.224 50 49 43
-463.847 -591.120 1815.378 50 49 43
-450.276 -582.012 1787.406 50 49 43
-446.606 -585.622 1798.491 50 49 43
-435.418 -579.334 1779.182 50 49 43
-429.024 -579.334 1779.182 51 50 44
-423.280 -580.224 1781.915 50 48 47
-414.964 -577.563 1773.741 50 48 47
-410.473 -580.224 1781.915 50 48 47
-402.216 -577.563 1773.741 48 46 45
-396.448 -578.447 1776.457 47 45 44
-388.281 -575.802 1768.333 37 35 34
-382.509 -576.681 1771.033 29 27 26
-376.145 -576.681 1771.033 34 32 31
-176.925 -380.772 1169.382 50 48 47
-172.723 -380.772 1169.382 50 48 47
-168.520 -380.772 1169.382 48 38 35
-164.318 -380.772 1169.382 43 36 32
-160.116 -380.772 1169.382 51 48 43
-74.064 -185.889 570.879 50 48 48
-72.013 -185.889 570.879 50 48 49
-69.961 -185.889 570.879 50 48 49
-67.910 -185.889 570.879 50 48 49
-65.858 -185.889 570.879 50 48 49
-63.807 -185.889 570.879 51 49 48
-61.755 -185.889 570.879 51 49 48
-59.704 -185.889 570.879 54 52 51
-57.652 -185.889 570.879 54 52 51
-55.601 -185.889 570.879 55 53 52
-43.549 -186.993 574.271 55 53 52
-41.241 -185.889 570.879 54 52 51
-39.189 -185.889 570.879 53 51 50
-37.138 -185.889 570.879 54 52 51
-35.086 -185.889 570.879 56 54 53
-33.035 -185.889 570.879 55 53 52
-30.983 -185.889 570.879 55 53 52
-28.932 -185.889 570.879 55 53 55
-28.448 -196.732 604.181 54 52 54
-26.277 -196.732 604.181 54 52 53
-24.106 -196.732 604.181 54 52 53
-21.935 -196.732 604.181 54 52 52
-2.395 -196.732 604.181 104 91 94
-0.224 -196.732 604.181 212 199 202
1.947 -196.732 604.181 232 219 222
8.604 -200.067 614.421 221 214 215
10.812 -200.067 614.421 221 214 215
13.013 -199.961 614.096 225 218 219
15.204 -199.749 613.446 227 220 221
17.390 -199.538 612.798 223 217 213
19.623 -199.855 613.771 224 218 214
21.794 -199.538 612.798 224 218 214
26.458 -185.889 570.879 222 221 215
210.630 -308.348 946.960 62 60 59
218.129 -314.248 965.080 57 59 57
140.900 -196.732 604.181 224 220 220
226.339 -238.765 733.266 223 221 220
228.684 -238.463 732.340 223 221 220
231.024 -238.163 731.417 226 218 221
233.506 -238.013 730.956 228 220 223
235.984 -237.863 730.495 231 223 226
238.309 -237.563 729.576 59 51 54
210.376 -196.732 604.181 57 55 54
212.547 -196.732 604.181 151 149 148
214.718 -196.732 604.181 233 231 230
216.889 -196.732 604.181 227 225 224
245.964 -185.889 570.879 60 57 56
248.016 -185.889 570.879 53 52 45
250.067 -185.889 570.879 55 53 55
252.119 -185.889 570.879 53 51 53
254.170 -185.889 570.879 52 50 52
256.221 -185.889 570.879 54 52 54
273.339 -196.732 604.181 54 53 47
290.708 -196.732 604.181 53 51 50
292.879 -196.732 604.181 53 51 50
295.050 -196.732 604.181 51 49 48
299.392 -196.732 604.181 51 49 48
321.104 -196.732 604.181 50 52 35
400.185 -243.537 747.922 223 225 210
327.617 -196.732 604.181 216 214 212
323.920 -185.889 570.879 217 210 211
325.971 -185.889 570.879 212 211 207
328.023 -185.889 570.879 212 210 207
330.074 -185.889 570.879 212 211 207
332.126 -185.889 570.879 211 210 206
334.177 -185.889 570.879 210 208 205
338.280 -185.889 570.879 209 207 206
340.331 -185.889 570.879 209 207 206
342.383 -185.889 570.879 209 207 206
344.434 -185.889 570.879 207 205 204
346.486 -185.889 570.879 205 203 202
348.537 -185.889 570.879 205 203 202
350.589 -185.889 570.879 207 205 203
352.640 -185.889 570.879 203 202 196
354.692 -185.889 570.879 201 200 194
356.743 -185.889 570.879 202 201 195
358.795 -185.889 570.879 202 201 195
360.846 -185.889 570.879 207 206 198
388.409 -196.732 604.181 20 20 5
390.580 -196.732 604.181 96 100 74
392.751 -196.732 604.181 192 195 172
394.922 -196.732 604.181 189 191 176
397.093 -196.732 604.181 189 190 180
399.264 -196.732 604.181 188 189 182
401.436 -196.732 604.181 186 187 180
403.607 -196.732 604.181 185 186 179
405.778 -196.732 604.181 184 185 178
407.949 -196.732 604.181 184 184 179
410.120 -196.732 604.181 184 182 181
393.669 -185.889 570.879 183 181 180
395.721 -185.889 570.879 182 180 179
397.772 -185.889 570.879 182 180 179
399.824 -185.889 570.879 181 179 178
401.875 -185.889 570.879 179 177 176
427.489 -196.732 604.181 179 177 176
429.660 -196.732 604.181 177 175 174
410.081 -185.889 570.879 177 175 174
412.133 -185.889 570.879 179 174 184
414.184 -185.889 570.879 156 148 176
416.235 -185.889 570.879 24 17 58
418.287 -185.889 570.879 33 30 57
420.338 -185.889 570.879 31 35 34
422.390 -185.889 570.879 32 34 34
424.441 -185.889 570.879 32 34 34
433.968 -189.147 580.885 31 33 33
430.596 -185.889 570.879 28 28 28
432.647 -185.889 570.879 28 28 28
434.699 -185.889 570.879 30 30 30
436.750 -185.889 570.879 27 27 27
-690.132 -265.311 823.883 10 11 2
-687.660 -265.499 824.468 12 13 4
-684.211 -265.311 823.883 10 11 2
-681.251 -265.311 823.883 10 11 2
-678.290 -265.311 823.883 10 11 2
-675.329 -265.311 823.883 9 10 3
-672.847 -265.499 824.468 9 10 3
-669.408 -265.311 823.883 9 10 3
-666.447 -265.311 823.883 12 13 6
-663.487 -265.311 823.883 9 10 1
-660.526 -265.311 823.883 10 11 2
-657.566 -265.311 823.883 12 13 4
-654.605 -265.311 823.883 11 12 3
-651.182 -265.122 823.298 10 11 2
-647.304 -264.747 822.131 8 9 2
-643.894 -264.559 821.549 9 10 3
-641.396 -264.747 822.131 10 11 4
-638.894 -264.934 822.714 10 11 4
-635.487 -264.747 822.131 10 11 4
-633.431 -265.122 823.298 10 11 4
-630.025 -264.934 822.714 11 12 5
-627.959 -265.311 823.883 12 13 6
-624.999 -265.311 823.883 11 12 5
-621.596 -265.122 823.298 10 11 4
-619.077 -265.311 823.883 9 10 3
-616.555 -265.499 824.468 9 10 3
-613.156 -265.311 823.883 9 10 3
-610.195 -265.311 823.883 9 10 3
-606.804 -265.122 823.298 10 11 4
-603.417 -264.934 822.714 10 11 4
-600.035 -264.747 822.131 10 11 4
-597.928 -265.122 823.298 11 12 5
-594.548 -264.934 822.714 12 13 6
-592.011 -265.122 823.298 10 11 4
-589.053 -265.122 823.298 10 11 4
-584.849 -264.559 821.549 10 10 8
-581.074 -264.185 820.387 15 15 15
-579.355 -264.747 822.131 44 43 45
-576.809 -264.934 822.714 47 47 47
-574.260 -265.122 823.298 47 47 45
-571.301 -265.122 823.298 39 39 33
-568.747 -265.311 823.883 19 20 13
-565.786 -265.311 823.883 26 26 26
-566.446 -267.017 829.183 29 29 29
-563.869 -267.208 829.776 32 32 32
-558.889 -266.256 826.819 46 46 46
-556.314 -266.446 827.408 48 48 48
-551.766 -265.688 825.054 50 47 42
-551.942 -267.208 829.776 33 34 27
-555.316 -270.302 839.382 13 15 8
-553.903 -271.087 841.819 9 14 6
-551.678 -271.481 843.043 17 18 11
-548.649 -271.481 843.043 11 12 5
-545.223 -271.283 842.430 13 13 10
-542.590 -271.481 843.043 13 13 13
-540.346 -271.876 844.270 13 12 14
-536.531 -271.481 843.043 20 20 20
-533.114 -271.283 842.430 32 32 32
-529.702 -271.087 841.819 33 33 33
-615.898 -330.289 1025.665 32 30 29
-614.931 -331.756 1030.219 34 32 31
-612.862 -332.642 1032.971 37 35 34
-609.150 -332.642 1032.971 31 31 29
-605.977 -332.939 1033.892 28 28 26
-602.262 -332.939 1033.892 26 26 24
-599.616 -333.533 1035.738 28 28 26
-600.721 -336.235 1044.128 29 29 27
-597.507 -336.538 1045.069 31 31 29
-593.217 -336.235 1044.128 33 33 31
-589.996 -336.538 1045.069 29 29 27
-586.240 -336.538 1045.069 29 29 27
-579.353 -334.729 1039.450 29 29 23
-576.651 -335.330 1041.317 28 24 20
-569.840 -333.533 1035.738 37 27 24
-566.118 -333.533 1035.738 59 43 42
-562.899 -333.831 1036.664 49 28 29
-560.175 -334.429 1038.520 36 29 30
-702.312 -422.099 1310.765 39 32 33
-699.182 -423.055 1313.733 40 33 34
-696.038 -424.015 1316.716 45 38 39
-691.306 -424.015 1316.716 49 43 42
-685.796 -423.534 1315.223 69 58 59
-673.435 -418.786 1300.478 131 114 120
-670.264 -419.727 1303.401 251 239 246
-661.123 -416.917 1294.673 251 243 250
-656.471 -416.917 1294.673 253 249 251
-663.670 -424.497 1318.212 253 249 251
-804.245 -518.110 1608.913 252 248 250
-799.573 -518.830 1611.148 250 246 248
-790.489 -516.677 1604.463 247 245 246
-784.724 -516.677 1604.463 247 244 246
-778.958 -516.677 1604.463 249 246 248
-775.337 -518.110 1608.913 251 248 249
-767.427 -516.677 1604.463 249 247 248
-769.107 -521.728 1620.149 249 246 247
-762.221 -521.000 1617.889 252 249 250
-757.463 -521.728 1620.149 250 248 249
-748.505 -519.551 1613.389 250 248 249
-738.598 -516.677 1604.463 252 246 253
-732.833 -516.677 1604.463 251 246 253
-727.067 -516.677 1604.463 67 65 68
-722.300 -517.392 1606.685 72 73 73
-716.527 -517.392 1606.685 66 67 66
-712.727 -518.830 1611.148 60 59 61
-706.938 -518.830 1611.148 59 58 60
-701.148 -518.830 1611.148 62 61 63
-700.221 -522.458 1622.415 62 61 63
-689.569 -518.830 1611.148 61 61 61
-683.779 -518.830 1611.148 60 60 60
-678.932 -519.551 1613.389 62 62 62
-673.134 -519.551 1613.389 64 64 64
-667.337 -519.551 1613.389 68 67 67
-661.539 -519.551 1613.389 68 66 67
-655.741 -519.551 1613.389 72 70 71
-649.944 -519.551 1613.389 71 69 70
-645.043 -520.275 1615.636 69 67 67
-639.237 -520.275 1615.636 68 66 67
-635.201 -521.728 1620.149 67 65 65
-627.626 -520.275 1615.636 67 65 65
-620.955 -519.551 1613.389 69 67 68
-615.157 -519.551 1613.389 69 67 68
-608.513 -518.830 1611.148 71 69 70
-602.723 -518.830 1611.148 70 68 69
-598.596 -520.275 1615.636 70 68 69
-592.791 -520.275 1615.636 70 68 69
-586.985 -520.275 1615.636 70 68 69
-583.618 -522.458 1622.415 74 72 73
-582.677 -526.879 1636.145 78 76 77
-576.797 -526.879 1636.145 83 81 82
-571.724 -527.623 1638.456 85 82 85
-565.837 -527.623 1638.456 65 63 64
-560.741 -528.370 1640.773 92 90 87
-556.419 -529.869 1645.428 64 63 57
-578.400 -556.717 1728.803 67 63 58
-585.271 -569.447 1768.333 54 48 44
-617.765 -614.404 1907.939 65 59 55
-615.974 -619.498 1923.759 64 58 54
-608.053 -618.472 1920.574 63 57 53
-618.561 -636.384 1976.195 52 47 44
-611.165 -667.067 2071.476 54 50 45
-520.117 -581.865 1806.895 52 48 43
-513.624 -581.865 1806.895 50 48 45
-507.131 -581.865 1806.895 49 47 43
-502.202 -583.683 1812.542 50 49 42
-489.569 -576.477 1790.165 50 49 41
-483.883 -577.368 1792.931 50 49 43
-473.779 -572.941 1779.182 50 49 43
-476.894 -584.597 1815.378 50 49 43
-470.370 -584.597 1815.378 52 51 45
-463.847 -584.597 1815.378 52 51 45
-454.478 -580.960 1804.085 51 50 44
-448.693 -581.865 1806.895 51 50 44
-438.783 -577.368 1792.931 50 49 43
-431.672 -576.477 1790.165 52 51 45
-426.556 -578.262 1795.707 49 47 48
-416.876 -573.821 1781.915 49 47 48
-413.011 -577.368 1792.931 49 47 48
-403.450 -572.941 1779.182 49 47 48
-398.278 -574.704 1784.656 48 46 47
-389.468 -571.189 1773.741 46 44 45
-384.270 -572.941 1779.182 39 37 38
-378.456 -573.821 1781.915 27 25 26
-372.053 -573.821 1781.915 34 32 33
-180.945 -376.191 1168.204 49 47 46
-176.747 -376.191 1168.204 51 49 48
-172.549 -376.191 1168.204 50 48 47
-168.351 -376.191 1168.204 52 40 38
-164.153 -376.191 1168.204 44 34 31
-160.116 -376.570 1169.382 51 43 44
-155.914 -376.570 1169.382 53 49 51
-72.013 -183.837 570.879 52 50 49
-63.807 -183.837 570.879 52 51 45
-61.755 -183.837 570.879 52 51 45
-59.704 -183.837 570.879 51 50 44
-55.601 -183.837 570.879 54 52 51
-43.571 -185.021 574.555 53 51 52
-41.241 -183.837 570.879 54 52 53
-39.189 -183.837 570.879 55 53 54
-37.138 -183.837 570.879 55 53 54
-35.086 -183.837 570.879 56 54 55
-33.035 -183.837 570.879 55 53 54
-32.791 -194.561 604.181 55 53 54
-30.620 -194.561 604.181 56 54 55
-28.448 -194.561 604.181 56 54 55
-26.277 -194.561 604.181 57 55 56
-24.106 -194.561 604.181 57 55 56
-21.935 -194.561 604.181 58 56 57
-8.908 -194.561 604.181 65 57 62
-6.737 -194.561 604.181 166 157 162
-4.566 -194.561 604.181 235 222 228
-2.395 -194.561 604.181 230 224 220
1.840 -183.837 570.879 223 217 213
3.892 -183.837 570.879 223 217 213
5.943 -183.837 570.879 223 217 215
7.995 -183.837 570.879 223 216 217
15.228 -197.859 614.421 225 218 219
20.303 -183.837 570.879 225 219 215
22.355 -183.837 570.879 224 218 214
24.406 -183.837 570.879 224 217 218
26.458 -183.837 570.879 224 217 218
28.509 -183.837 570.879 225 218 219
85.950 -183.837 570.879 63 61 60
93.135 -194.561 604.181 63 61 60
95.306 -194.561 604.181 64 62 61
97.477 -194.561 604.181 61 59 58
103.991 -194.561 604.181 57 57 55
206.553 -303.952 943.878 59 59 57
209.945 -303.952 943.878 61 61 59
140.900 -194.561 604.181 230 230 228
226.053 -235.832 732.340 225 218 221
228.684 -235.832 732.340 225 218 221
231.170 -235.683 731.878 227 219 222
233.653 -235.534 731.417 227 219 222
236.132 -235.386 730.956 224 216 219
238.609 -235.238 730.495 130 122 125
245.964 -183.837 570.879 65 57 61
248.016 -183.837 570.879 56 50 46
250.067 -183.837 570.879 55 53 52
252.119 -183.837 570.879 54 52 51
254.170 -183.837 570.879 55 53 52
256.221 -183.837 570.879 53 51 50
273.339 -194.561 604.181 53 51 50
275.510 -194.561 604.181 53 51 50
277.681 -194.561 604.181 53 51 50
279.852 -194.561 604.181 54 52 51
282.023 -194.561 604.181 51 49 48
284.194 -194.561 604.181 50 48 47
286.366 -194.561 604.181 51 49 48
288.537 -194.561 604.181 52 50 49
292.879 -194.561 604.181 50 50 48
295.050 -194.561 604.181 49 49 47
297.221 -194.561 604.181 49 49 47
299.392 -194.561 604.181 52 50 49
301.564 -194.561 604.181 50 48 47
303.735 -194.561 604.181 50 48 47
305.906 -194.561 604.181 50 48 47
308.077 -194.561 604.181 48 48 46
310.248 -194.561 604.181 50 50 48
312.419 -194.561 604.181 50 50 48
314.590 -194.561 604.181 49 49 47
316.761 -194.561 604.181 50 50 48
318.933 -194.561 604.181 50 51 43
398.268 -241.316 749.371 41 44 26
400.961 -241.316 749.371 220 222 205
403.133 -241.005 748.404 218 219 209
405.561 -240.849 747.922 215 214 208
407.985 -240.694 747.440 215 214 208
410.936 -240.849 747.922 214 213 207
413.357 -240.694 747.440 214 213 207
334.177 -183.837 570.879 210 208 207
440.217 -240.694 747.440 210 208 207
360.184 -194.561 604.181 209 207 206
362.355 -194.561 604.181 209 207 206
348.537 -183.837 570.879 204 202 201
350.589 -183.837 570.879 205 203 201
354.692 -183.837 570.879 219 218 212
377.553 -194.561 604.181 184 183 177
379.724 -194.561 604.181 84 83 77
381.895 -194.561 604.181 25 23 20
384.066 -194.561 604.181 35 34 28
386.238 -194.561 604.181 35 34 26
388.409 -194.561 604.181 33 32 23
390.580 -194.561 604.181 47 51 25
392.751 -194.561 604.181 197 200 177
394.922 -194.561 604.181 189 191 176
397.093 -194.561 604.181 189 190 180
399.264 -194.561 604.181 188 189 182
401.436 -194.561 604.181 186 187 180
403.607 -194.561 604.181 186 187 180
405.778 -194.561 604.181 186 187 180
407.949 -194.561 604.181 186 186 181
410.120 -194.561 604.181 186 184 183
412.291 -194.561 604.181 186 184 183
414.462 -194.561 604.181 185 183 182
416.633 -194.561 604.181 185 183 182
418.805 -194.561 604.181 183 181 180
420.976 -194.561 604.181 184 182 181
423.147 -194.561 604.181 182 180 179
425.318 -194.561 604.181 181 179 178
427.489 -194.561 604.181 182 180 179
429.660 -194.561 604.181 180 178 177
431.831 -194.561 604.181 182 180 179
434.002 -194.561 604.181 182 180 179
436.174 -194.561 604.181 183 179 183
416.235 -183.837 570.879 48 41 81
418.287 -183.837 570.879 32 28 60
420.338 -183.837 570.879 30 32 40
422.390 -183.837 570.879 31 33 33
441.158 -191.078 593.364 34 36 36
439.246 -189.335 587.951 30 32 32
490.316 -210.336 653.168 29 31 31
493.497 -210.692 654.273 29 29 29
432.647 -183.837 570.879 31 31 31
436.633 -184.655 573.419 34 34 34
-690.132 -262.350 823.883 11 12 3
-687.660 -262.536 824.468 13 14 5
-684.211 -262.350 823.883 10 11 2
-680.767 -262.164 823.298 10 11 2
-678.290 -262.350 823.883 10 11 2
-674.850 -262.164 823.298 11 12 3
-672.847 -262.536 824.468 13 14 5
-669.408 -262.350 823.883 10 11 2
-666.447 -262.350 823.883 11 12 3
-663.487 -262.350 823.883 11 12 3
-660.526 -262.350 823.883 12 13 4
-657.566 -262.350 823.883 12 13 4
-654.605 -262.350 823.883 11 12 3
-651.182 -262.164 823.298 10 11 2
-647.304 -261.792 822.131 10 11 4
-643.894 -261.607 821.549 8 9 2
-640.941 -261.607 821.549 10 11 4
-638.441 -261.792 822.131 9 10 3
-635.037 -261.607 821.549 9 10 3
-633.431 -262.164 823.298 8 11 4
-630.025 -261.978 822.714 11 14 7
-627.959 -262.350 823.883 9 12 5
-624.999 -262.350 823.883 9 11 4
-621.596 -262.164 823.298 9 10 3
-619.077 -262.350 823.883 9 10 3
-616.117 -262.350 823.883 8 9 2
-613.156 -262.350 823.883 9 10 3
-610.195 -262.350 823.883 10 11 4
-606.373 -261.978 822.714 9 10 3
-602.989 -261.792 822.131 9 10 3
-599.610 -261.607 821.549 9 10 3
-597.081 -261.792 822.131 10 11 4
-594.126 -261.792 822.131 12 13 6
-592.011 -262.164 823.298 10 11 4
-589.053 -262.164 823.298 11 12 5
-584.849 -261.607 821.549 13 13 11
-580.663 -261.052 819.807 14 14 14
-579.355 -261.792 822.131 41 41 42
-576.809 -261.978 822.714 48 48 47
-574.260 -262.164 823.298 46 46 44
-571.301 -262.164 823.298 39 40 36
-568.747 -262.350 823.883 19 19 15
-565.786 -262.350 823.883 25 25 24
-566.851 -264.227 829.776 29 29 28
-564.273 -264.416 830.370 32 32 31
-558.889 -263.285 826.819 46 46 45
-556.711 -263.661 827.999 48 48 47
-551.766 -262.723 825.054 48 47 41
-551.548 -264.038 829.183 35 36 29
-555.316 -267.286 839.382 14 15 8
-554.305 -268.256 842.430 10 13 5
-551.678 -268.451 843.043 17 18 11
-548.649 -268.451 843.043 9 10 3
-545.619 -268.451 843.043 13 13 9
-542.590 -268.451 843.043 15 15 15
-540.739 -269.038 844.885 15 14 16
-536.531 -268.451 843.043 21 21 21
-533.501 -268.451 843.043 33 33 33
-530.087 -268.256 842.430 32 32 32
-615.354 -326.315 1024.758 33 30 33
-614.385 -327.763 1029.305 28 25 28
-612.316 -328.638 1032.052 31 29 31
-609.150 -328.930 1032.971 32 32 28
-605.438 -328.930 1032.971 32 33 26
-602.262 -329.223 1033.892 27 28 21
-599.616 -329.811 1035.738 27 28 21
-600.181 -332.184 1043.189 29 30 23
-596.969 -332.483 1044.128 29 29 27
-592.683 -332.184 1043.189 29 29 27
-589.996 -332.783 1045.069 29 29 27
-585.712 -332.483 1044.128 29 29 27
-578.834 -330.697 1038.520 26 28 26
-576.134 -331.290 1040.383 29 27 25
-569.840 -329.811 1035.738 34 26 25
-566.118 -329.811 1035.738 57 39 37
-562.396 -329.811 1035.738 57 33 32
-559.674 -330.401 1037.591 39 27 25
-699.940 -415.978 1306.336 38 32 29
-696.815 -416.917 1309.285 38 38 36
-693.676 -417.861 1312.247 44 40 42
-688.960 -417.861 1312.247 56 37 42
-682.700 -416.917 1309.285 72 55 61
-670.428 -412.264 1294.673 103 89 96
-666.520 -412.725 1296.119 254 246 254
-661.123 -412.264 1294.673 253 248 254
-656.471 -412.264 1294.673 246 242 251
-776.414 -513.040 1611.148 247 245 246
-770.624 -513.040 1611.148 252 250 251
-768.035 -515.187 1617.889 241 253 252
-763.285 -515.906 1620.149 242 253 252
-759.585 -517.351 1624.687 235 248 246
-750.593 -515.187 1617.889 239 252 251
-741.676 -513.040 1611.148 243 233 243
-735.886 -513.040 1611.148 254 248 254
-730.096 -513.040 1611.148 89 83 92
-724.307 -513.040 1611.148 76 71 80
-718.517 -513.040 1611.148 69 65 72
-713.719 -513.753 1613.389 64 64 64
-707.921 -513.753 1613.389 64 64 64
-702.123 -513.753 1613.389 62 62 62
-700.221 -516.628 1622.415 62 62 62
-691.489 -514.469 1615.636 63 61 62
-685.684 -514.469 1615.636 62 60 61
-679.878 -514.469 1615.636 63 61 62
-674.072 -514.469 1615.636 66 64 65
-667.337 -513.753 1613.389 67 65 66
-661.539 -513.753 1613.389 68 66 67
-655.741 -513.753 1613.389 70 68 69
-649.944 -513.753 1613.389 73 71 72
-645.043 -514.469 1615.636 69 67 68
-639.237 -514.469 1615.636 68 66 67
-634.315 -515.187 1617.889 66 64 65
-627.626 -514.469 1615.636 68 66 67
-620.955 -513.753 1613.389 69 67 68
-615.157 -513.753 1613.389 67 67 67
-609.359 -513.753 1613.389 68 68 68
-603.562 -513.753 1613.389 69 69 69
-598.596 -514.469 1615.636 69 69 69
-592.791 -514.469 1615.636 69 69 69
-586.985 -514.469 1615.636 72 66 69
-582.802 -515.906 1620.149 75 70 72
-581.038 -519.534 1631.542 78 72 75
-575.175 -519.534 1631.542 82 77 80
-570.114 -520.266 1633.840 82 74 79
-564.243 -520.266 1633.840 69 62 65
-559.159 -521.000 1636.145 96 89 88
-554.061 -521.736 1638.456 66 60 56
-617.765 -607.547 1907.939 63 57 53
-616.997 -613.603 1926.955 61 55 51
-609.061 -612.585 1923.759 64 58 54
-643.786 -654.945 2056.785 57 52 48
-520.928 -576.270 1809.714 53 46 46
-514.425 -576.270 1809.714 50 48 47
-507.922 -576.270 1809.714 50 48 45
-502.202 -577.170 1812.542 52 51 43
-493.376 -574.477 1804.085 52 51 42
-486.137 -573.585 1801.284 50 49 43
-477.440 -570.925 1792.931 50 49 43
-477.641 -578.979 1818.224 50 49 43
-471.107 -578.979 1818.224 52 51 45
-463.847 -578.073 1815.378 52 51 45
-455.896 -576.270 1809.714 51 50 44
-450.095 -577.170 1812.542 51 50 44
-440.827 -573.585 1801.284 50 49 43
-433.680 -572.696 1798.491 50 49 43
-427.881 -573.585 1801.284 51 49 50
-419.454 -570.925 1792.931 50 48 49
-414.291 -572.696 1798.491 50 48 49
-405.315 -569.166 1787.406 50 48 49
-400.125 -570.925 1792.931 53 51 52
-390.663 -566.547 1779.182 52 50 51
-385.452 -568.290 1784.656 51 49 50
-380.796 -570.925 1792.931 42 40 41
-373.776 -570.044 1790.165 32 30 31
-368.480 -571.809 1795.707 35 33 34
-88.834 -206.593 648.784 53 45 46
-86.599 -206.825 649.511 52 48 50
-84.549 -207.522 651.700 52 48 49
-82.115 -207.289 650.969 52 50 49
-79.821 -207.405 651.334 54 52 51
-57.652 -181.786 570.879 53 52 46
-55.601 -181.786 570.879 54 52 51
-53.549 -181.786 570.879 54 52 51
-51.498 -181.786 570.879 52 50 49
-49.446 -181.786 570.879 56 54 53
-47.395 -181.786 570.879 55 53 53
-45.344 -181.786 570.879 55 53 54
-43.292 -181.786 570.879 55 53 54
-41.241 -181.786 570.879 56 54 55
-39.189 -181.786 570.879 57 55 56
-37.138 -181.786 570.879 55 53 54
-35.086 -181.786 570.879 55 53 54
-34.962 -192.390 604.181 56 54 55
-32.791 -192.390 604.181 56 54 55
-30.620 -192.390 604.181 58 56 57
-28.448 -192.390 604.181 58 56 57
-26.277 -192.390 604.181 59 57 58
-24.106 -192.390 604.181 59 57 58
-21.935 -192.390 604.181 57 57 57
-13.250 -192.390 604.181 120 104 110
-8.908 -192.390 604.181 229 217 218
-6.366 -181.786 570.879 223 215 214
-4.314 -181.786 570.879 217 213 211
-2.263 -181.786 570.879 226 220 216
-0.211 -181.786 570.879 222 216 212
1.840 -181.786 570.879 226 220 216
3.892 -181.786 570.879 223 217 213
5.943 -181.786 570.879 221 215 213
7.995 -181.786 570.879 223 216 217
10.046 -181.786 570.879 225 218 219
12.097 -181.786 570.879 223 216 217
