ply
format ascii 1.0
element vertex 1350
property float x
property float y
property float z
property uchar red
property uchar green
property uchar blue
end_header
-577.425 135.415 1163.517 28 27 21
-576.714 136.234 1170.562 30 29 23
-571.355 135.960 1168.204 31 30 24
-568.301 136.234 1170.562 41 25 22
-563.526 136.097 1169.382 48 27 26
-555.405 135.143 1161.188 39 21 19
-552.892 135.551 1164.685 39 33 27
-546.512 135.008 1160.027 40 41 34
-761.778 192.594 1654.817 46 44 43
-756.911 192.869 1657.181 47 45 44
-749.885 192.594 1654.817 43 42 36
-745.001 192.869 1657.181 41 40 34
-740.103 193.145 1659.552 44 43 37
-735.192 193.422 1661.929 45 44 38
-721.979 191.501 1645.428 37 36 30
-716.066 191.501 1645.428 27 26 20
-703.171 189.618 1629.251 20 19 13
-636.444 176.021 1512.421 14 15 8
-463.601 133.937 1150.820 18 19 12
-459.465 133.937 1150.820 20 21 14
-455.330 133.937 1150.820 20 21 14
-451.194 133.937 1150.820 21 22 15
-343.671 133.937 1150.820 200 200 200
-339.536 133.937 1150.820 191 190 184
-622.310 324.539 2788.526 194 193 187
-610.821 323.761 2781.838 194 193 187
-600.824 323.761 2781.838 194 193 187
-588.008 322.216 2768.560 194 193 187
-580.831 323.761 2781.838 194 193 187
-569.469 322.986 2775.183 194 193 187
-554.193 319.925 2748.878 192 191 185
-539.204 316.921 2723.067 200 202 193
-529.419 316.921 2723.067 30 33 26
-525.805 320.685 2755.408 45 47 43
-515.803 326.897 2808.781 42 44 44
-506.937 327.690 2815.599 40 42 42
-498.028 328.487 2822.449 41 43 43
-472.196 331.716 2850.188 43 43 43
-95.542 133.937 1150.820 195 194 188
-91.407 133.937 1150.820 194 193 187
-87.271 133.937 1150.820 194 193 187
-37.645 133.937 1150.820 49 49 47
-33.510 133.937 1150.820 50 50 48
-29.374 133.937 1150.820 50 50 50
-25.239 133.937 1150.820 50 50 50
-21.103 133.937 1150.820 50 50 50
381.410 179.294 1540.540 34 34 34
379.389 175.792 1510.451 34 34 34
384.817 175.792 1510.451 34 34 34
390.244 175.792 1510.451 36 36 36
359.361 133.937 1150.820 200 199 193
363.497 133.937 1150.820 200 199 193
367.632 133.937 1150.820 199 198 192
371.768 133.937 1150.820 199 198 192
375.903 133.937 1150.820 199 198 192
380.039 133.937 1150.820 199 198 192
384.174 133.937 1150.820 198 197 191
388.310 133.937 1150.820 198 197 191
392.445 133.937 1150.820 200 199 193
396.581 133.937 1150.820 200 199 193
400.716 133.937 1150.820 198 196 195
-1082.798 145.127 1209.621 12 13 4
-1087.524 146.348 1219.797 12 13 4
-1083.140 146.348 1219.797 12 13 4
-1093.708 148.376 1236.702 12 13 4
-1068.755 145.583 1213.417 12 13 6
-1059.959 144.976 1208.361 12 13 6
-1055.617 144.976 1208.361 12 13 6
-1048.049 145.735 1214.688 12 13 6
-1052.500 146.966 1224.949 12 13 6
-1046.993 146.811 1223.657 12 13 6
-1024.229 144.225 1202.100 12 13 6
-1022.027 144.524 1204.597 12 13 6
-1027.299 145.888 1215.961 13 13 11
-1017.597 145.127 1209.621 13 13 11
-1012.194 144.976 1208.361 13 13 11
-1001.592 144.075 1200.856 13 13 11
-1003.510 144.976 1208.361 12 12 10
-1004.399 145.735 1214.688 12 12 10
-1001.082 145.888 1215.961 12 12 10
-992.551 145.279 1210.884 12 12 10
-984.091 144.675 1205.849 13 13 11
-986.939 145.735 1214.688 14 14 12
-991.922 147.121 1226.244 14 14 12
-983.357 146.502 1221.081 13 13 11
-973.844 145.735 1214.688 12 12 10
-976.637 146.811 1223.657 12 12 10
-973.267 146.966 1224.949 11 12 5
-954.750 144.825 1207.104 13 14 7
-949.425 144.675 1205.849 17 18 11
-950.029 145.430 1212.149 18 19 12
-942.718 144.976 1208.361 19 20 13
-938.376 144.976 1208.361 20 21 14
-934.034 144.976 1208.361 22 23 16
-932.606 145.430 1212.149 22 23 16
-932.146 146.041 1217.237 24 25 18
-930.702 146.502 1221.081 21 21 19
-925.340 146.348 1219.797 12 12 10
-921.926 146.502 1221.081 14 14 12
-917.538 146.502 1221.081 13 13 11
-903.638 144.976 1208.361 13 13 11
-904.951 145.888 1215.961 10 13 6
-902.474 146.194 1218.515 10 13 6
-894.656 146.348 1219.797 10 13 6
-827.523 138.072 1150.820 12 12 9
-726.679 140.158 1168.204 13 14 5
-674.510 138.072 1150.820 25 26 19
-672.915 139.456 1162.351 26 25 19
-669.409 139.596 1163.517 28 27 21
-666.565 139.876 1165.856 28 27 21
-639.500 139.456 1162.351 29 28 22
-635.323 139.456 1162.351 29 28 22
-636.889 140.725 1172.929 29 28 22
-632.675 140.725 1172.929 29 28 22
-625.298 140.017 1167.029 30 29 23
-617.996 139.316 1161.188 27 28 21
-608.343 138.072 1150.820 29 30 23
-604.207 138.072 1150.820 30 31 24
-600.072 138.072 1150.820 30 31 24
-595.936 138.072 1150.820 33 34 25
-591.801 138.072 1150.820 33 34 25
-587.665 138.072 1150.820 34 35 26
-583.530 138.072 1150.820 34 35 26
-579.394 138.072 1150.820 34 35 26
-575.259 138.072 1150.820 33 32 26
-580.335 140.299 1169.382 30 29 23
-576.714 140.441 1170.562 30 29 23
-571.355 140.158 1168.204 31 30 24
-568.301 140.441 1170.562 41 25 22
-564.665 140.583 1171.744 48 27 26
-558.199 140.017 1167.029 39 21 19
-555.122 140.299 1169.382 39 33 27
-549.811 140.017 1167.029 40 41 33
-545.617 140.017 1167.029 44 42 41
-779.572 203.178 1693.470 43 41 40
-770.113 202.292 1686.085 46 44 43
-761.840 201.706 1681.198 42 41 35
-756.895 201.998 1683.638 39 38 32
-754.129 202.882 1691.001 41 40 34
-746.963 202.586 1688.539 44 43 37
-745.234 203.773 1698.428 38 37 31
-736.973 203.178 1693.470 28 27 21
-713.188 198.258 1652.460 23 22 16
-463.601 138.072 1150.820 21 22 15
-459.465 138.072 1150.820 22 23 16
-455.330 138.072 1150.820 22 23 16
-451.194 138.072 1150.820 22 23 16
-343.671 138.072 1150.820 192 192 192
-339.536 138.072 1150.820 191 190 184
-619.332 332.959 2775.183 195 194 188
-593.735 324.422 2704.025 194 193 187
-584.018 324.422 2704.025 193 192 186
-570.313 322.169 2685.247 193 192 186
-560.663 322.169 2685.247 193 192 186
-556.164 325.180 2710.343 193 192 186
-547.704 325.941 2716.690 193 192 186
-534.188 323.667 2697.736 186 189 179
-525.716 324.422 2704.025 81 84 77
-515.999 324.422 2704.025 44 46 42
-502.767 322.169 2685.247 43 45 43
-493.117 322.169 2685.247 39 41 41
-503.272 335.366 2795.245 40 42 42
-493.228 335.366 2795.245 41 43 43
-472.927 328.247 2735.912 41 43 43
-444.870 322.169 2685.247 43 43 43
-441.350 326.706 2723.067 43 43 43
-367.954 314.169 2618.570 46 47 40
-95.542 138.072 1150.820 195 194 188
-91.407 138.072 1150.820 194 193 187
-37.645 138.072 1150.820 49 49 47
-33.510 138.072 1150.820 50 50 48
-29.374 138.072 1150.820 50 50 49
-25.239 138.072 1150.820 50 50 49
305.740 146.041 1217.237 34 34 34
307.853 144.976 1208.361 34 34 34
313.502 145.583 1213.417 35 35 35
359.361 138.072 1150.820 199 197 196
363.497 138.072 1150.820 199 197 196
367.632 138.072 1150.820 199 197 196
371.768 138.072 1150.820 199 197 196
375.903 138.072 1150.820 199 198 192
380.039 138.072 1150.820 199 198 192
384.174 138.072 1150.820 199 198 192
388.310 138.072 1150.820 199 198 192
392.445 138.072 1150.820 199 197 196
396.581 138.072 1150.820 199 197 196
400.716 138.072 1150.820 197 195 194
932.464 302.559 2521.797 28 32 24
976.050 310.663 2589.345 16 23 14
707.195 218.832 1823.941 107 109 101
987.819 163.353 1361.534 20 21 14
989.229 162.780 1356.756 20 21 14
-1030.162 142.208 1150.820 12 13 4
-1037.347 143.777 1163.517 12 13 4
-1021.891 142.208 1150.820 12 13 4
-1017.756 142.208 1150.820 12 13 4
-1047.928 147.021 1189.771 12 13 6
-1009.485 142.208 1150.820 12 13 6
-1005.349 142.208 1150.820 12 13 6
-1001.214 142.208 1150.820 12 13 6
-988.807 142.208 1150.820 12 13 6
-1033.906 149.318 1208.361 12 13 6
-1007.524 146.122 1182.494 12 13 6
-976.401 142.208 1150.820 12 13 6
-1000.045 146.271 1183.701 13 13 10
-968.130 142.208 1150.820 14 14 10
-963.995 142.208 1150.820 12 13 8
-968.506 143.489 1161.188 12 13 8
-955.724 142.208 1150.820 11 12 8
-978.776 146.271 1183.701 12 14 10
-994.825 149.318 1208.361 9 10 7
-943.317 142.208 1150.820 13 15 11
-939.182 142.208 1150.820 18 20 16
-935.046 142.208 1150.820 20 23 16
-955.558 145.973 1181.290 21 23 19
-926.775 142.208 1150.820 22 24 22
-964.752 148.699 1203.347 25 27 28
-918.504 142.208 1150.820 29 30 33
-914.369 142.208 1150.820 35 35 35
-939.115 146.720 1187.335 39 39 38
-922.572 144.793 1171.744 42 42 42
-901.962 142.208 1150.820 44 44 44
-897.827 142.208 1150.820 46 46 46
-893.691 142.208 1150.820 48 48 48
-889.556 142.208 1150.820 54 54 54
-926.795 148.853 1204.597 59 59 59
-925.349 149.318 1208.361 60 60 60
-877.149 142.208 1150.820 59 63 53
-913.809 148.853 1204.597 26 29 20
-911.373 149.163 1207.104 25 28 19
-864.743 142.208 1150.820 17 20 11
-872.729 144.211 1167.029 6 9 1
-899.639 150.100 1214.688 10 17 6
-848.201 142.208 1150.820 7 13 3
-882.591 148.699 1203.347 12 18 8
-850.904 144.066 1165.856 8 14 4
-835.794 142.208 1150.820 12 13 6
-831.659 142.208 1150.820 12 13 6
-827.523 142.208 1150.820 12 13 6
-733.325 145.676 1178.889 13 14 5
-683.879 145.973 1181.290 26 25 19
-683.812 146.870 1188.552 28 27 21
-676.768 146.271 1183.701 28 27 21
-666.555 147.779 1195.904 27 26 20
-647.570 144.502 1169.382 28 27 21
-644.668 144.793 1171.744 28 27 21
-641.104 144.940 1172.929 28 27 21
-646.035 147.021 1189.771 28 28 21
-641.102 146.870 1188.552 28 28 21
-632.296 145.825 1180.088 28 28 22
-621.730 144.356 1168.204 28 29 22
-615.055 143.777 1163.517 30 31 24
-612.101 144.066 1165.856 28 29 22
-609.136 144.356 1168.204 30 31 24
-605.548 144.502 1169.382 34 33 27
-598.931 143.921 1164.685 36 35 29
-595.942 144.211 1167.029 36 35 29
-598.980 145.973 1181.290 35 34 28
-586.964 144.066 1165.856 35 34 28
-583.361 144.211 1167.029 32 33 26
-590.454 147.021 1189.771 29 28 22
-585.578 146.870 1188.552 31 27 22
-577.755 145.973 1181.290 34 28 24
-574.680 146.271 1183.701 43 27 26
-569.265 145.973 1181.290 47 26 27
-560.454 144.793 1171.744 40 22 22
-560.775 145.973 1181.290 42 35 31
-551.476 144.647 1170.562 39 39 33
-546.717 144.502 1169.382 41 39 38
-789.951 212.050 1716.016 33 31 30
-780.321 211.113 1708.434 39 37 36
-773.043 210.802 1705.921 42 40 39
-768.042 211.113 1708.434 41 39 38
-763.027 211.424 1710.954 40 38 37
-755.764 211.113 1708.434 40 38 37
-757.433 213.312 1726.230 40 40 35
-750.114 212.995 1723.665 28 29 22
-737.346 211.113 1708.434 23 24 17
-463.601 142.208 1150.820 20 21 14
-459.465 142.208 1150.820 21 22 15
-455.330 142.208 1150.820 20 21 14
-451.194 142.208 1150.820 20 21 14
-447.059 142.208 1150.820 19 19 15
-343.671 142.208 1150.820 124 124 124
-339.536 142.208 1150.820 191 190 184
-335.401 142.208 1150.820 191 190 184
-604.862 334.919 2710.343 195 194 188
-593.735 334.139 2704.025 194 193 187
-584.018 334.139 2704.025 193 192 186
-570.313 331.818 2685.247 193 192 186
-560.663 331.818 2685.247 193 192 186
-556.164 334.919 2710.343 193 192 186
-545.150 334.139 2704.025 193 192 186
-534.188 333.362 2697.736 193 196 186
-524.494 333.362 2697.736 148 151 144
-513.605 332.588 2691.477 42 44 40
-502.767 331.818 2685.247 41 43 41
-491.978 331.052 2679.045 38 40 40
-494.924 339.681 2748.878 39 41 41
-268.981 225.032 1821.078 44 44 44
-165.846 142.208 1150.820 45 45 45
-250.006 219.855 1779.182 45 45 45
-247.407 223.280 1806.895 46 46 44
-239.052 221.554 1792.931 47 47 45
-232.609 221.554 1792.931 34 34 32
-103.813 142.208 1150.820 194 193 187
-99.678 142.208 1150.820 194 193 187
-95.542 142.208 1150.820 194 193 187
-91.407 142.208 1150.820 194 193 187
-45.916 142.208 1150.820 50 50 48
-37.645 142.208 1150.820 50 50 48
-33.510 142.208 1150.820 49 49 47
-29.374 142.208 1150.820 53 53 51
-25.239 142.208 1150.820 53 53 51
-21.103 142.208 1150.820 47 47 45
276.652 142.208 1150.820 33 33 33
280.787 142.208 1150.820 34 34 34
284.923 142.208 1150.820 34 34 34
289.058 142.208 1150.820 35 35 33
293.194 142.208 1150.820 34 34 32
297.329 142.208 1150.820 34 34 32
301.465 142.208 1150.820 34 34 32
305.600 142.208 1150.820 199 200 193
309.735 142.208 1150.820 203 204 197
313.871 142.208 1150.820 197 198 191
318.006 142.208 1150.820 198 199 192
322.142 142.208 1150.820 198 199 192
326.277 142.208 1150.820 199 198 192
334.548 142.208 1150.820 199 198 192
338.684 142.208 1150.820 199 198 192
342.819 142.208 1150.820 199 198 192
346.955 142.208 1150.820 199 198 192
351.090 142.208 1150.820 199 198 192
355.226 142.208 1150.820 199 198 192
359.361 142.208 1150.820 199 197 196
363.497 142.208 1150.820 199 197 196
367.632 142.208 1150.820 199 197 196
371.768 142.208 1150.820 199 197 196
375.903 142.208 1150.820 199 198 192
380.039 142.208 1150.820 199 198 192
384.174 142.208 1150.820 199 198 192
388.310 142.208 1150.820 199 198 192
392.445 142.208 1150.820 199 197 196
396.581 142.208 1150.820 199 197 196
400.716 142.208 1150.820 198 196 195
1238.836 212.050 1716.016 18 19 12
1243.164 211.736 1713.481 20 21 14
993.878 168.444 1363.134 19 20 13
-1034.298 146.343 1150.820 12 13 6
-1030.162 146.343 1150.820 12 13 6
-1026.027 146.343 1150.820 12 13 6
-1021.891 146.343 1150.820 12 13 6
-1017.756 146.343 1150.820 13 14 7
-1013.620 146.343 1150.820 12 13 6
-1009.485 146.343 1150.820 14 15 8
-1005.349 146.343 1150.820 13 14 7
-1001.214 146.343 1150.820 14 15 8
-997.078 146.343 1150.820 14 15 8
-992.943 146.343 1150.820 12 12 6
-988.807 146.343 1150.820 13 14 8
-984.672 146.343 1150.820 14 14 8
-980.537 146.343 1150.820 16 16 11
-976.401 146.343 1150.820 19 19 14
-972.266 146.343 1150.820 21 21 17
-968.130 146.343 1150.820 27 28 23
-963.995 146.343 1150.820 31 31 27
-959.859 146.343 1150.820 37 37 34
-955.724 146.343 1150.820 42 43 41
-951.588 146.343 1150.820 49 51 51
-947.453 146.343 1150.820 47 49 49
-943.317 146.343 1150.820 47 49 49
-939.182 146.343 1150.820 50 52 52
-935.046 146.343 1150.820 50 52 52
-930.911 146.343 1150.820 51 53 54
-926.775 146.343 1150.820 52 53 55
-922.640 146.343 1150.820 53 53 60
-918.504 146.343 1150.820 57 57 66
-914.369 146.343 1150.820 66 65 70
-910.233 146.343 1150.820 71 69 74
-906.098 146.343 1150.820 75 74 79
-901.962 146.343 1150.820 78 76 82
-897.827 146.343 1150.820 80 78 85
-893.691 146.343 1150.820 76 76 76
-889.556 146.343 1150.820 82 82 82
-885.420 146.343 1150.820 85 85 85
-881.285 146.343 1150.820 89 89 89
-877.149 146.343 1150.820 90 87 85
-873.014 146.343 1150.820 72 70 68
-848.201 146.343 1150.820 19 20 11
-839.930 146.343 1150.820 14 14 6
-835.794 146.343 1150.820 12 13 6
-976.232 209.240 1645.428 26 27 20
-952.751 205.451 1615.636 26 27 20
-941.699 204.313 1606.685 25 26 19
-912.110 205.451 1615.636 26 27 20
-671.400 153.182 1204.597 24 25 18
-639.166 148.704 1169.382 26 27 20
-641.102 151.141 1188.552 27 28 21
-608.343 146.343 1150.820 29 30 23
-604.207 146.343 1150.820 31 32 25
-606.692 147.958 1163.517 33 34 27
-603.116 148.106 1164.685 34 33 27
-591.801 146.343 1150.820 34 33 27
-587.665 146.343 1150.820 34 33 27
-594.740 149.155 1172.929 35 34 28
-579.394 146.343 1150.820 35 34 28
-575.259 146.343 1150.820 32 33 26
-595.337 153.660 1208.361 31 27 22
-582.500 151.452 1190.992 34 28 24
-579.410 151.763 1193.443 43 27 26
-573.352 151.296 1189.771 45 24 25
-781.478 207.766 1633.840 39 20 20
-563.645 150.987 1187.335 41 33 30
-750.593 205.738 1617.889 38 36 35
-776.172 214.410 1686.085 36 34 33
-770.113 214.410 1686.085 36 34 33
-760.737 213.479 1678.765 40 38 37
-755.798 213.788 1681.198 44 42 41
-751.936 214.410 1686.085 42 40 39
-743.716 213.788 1681.198 40 38 37
-752.951 218.216 1716.016 38 38 33
-740.215 216.296 1700.919 31 32 25
-721.409 212.556 1671.508 21 22 15
-463.601 146.343 1150.820 17 18 11
-459.465 146.343 1150.820 16 17 10
-455.330 146.343 1150.820 16 17 10
-451.194 146.343 1150.820 16 17 10
-447.059 146.343 1150.820 14 14 15
-343.671 146.343 1150.820 13 13 13
-339.536 146.343 1150.820 196 189 190
-335.401 146.343 1150.820 192 185 184
-596.500 339.894 2672.872 195 194 186
-580.210 336.023 2642.430 193 192 184
-570.715 336.023 2642.430 194 193 187
-556.152 332.989 2618.570 194 193 187
-544.284 331.492 2606.801 193 192 186
-547.214 339.113 2666.728 193 192 186
-541.364 341.468 2685.247 193 192 186
-529.265 339.894 2672.872 194 191 183
-520.860 340.679 2679.045 200 201 194
-511.233 340.679 2679.045 36 38 34
-498.154 338.335 2660.611 38 42 39
-483.053 334.499 2630.446 40 42 42
-171.341 147.514 1160.027 47 47 47
-165.846 146.343 1150.820 44 44 44
-161.710 146.343 1150.820 44 44 44
-157.575 146.343 1150.820 46 46 44
-153.439 146.343 1150.820 47 47 45
-149.304 146.343 1150.820 53 53 51
-112.084 146.343 1150.820 193 192 186
-107.949 146.343 1150.820 193 192 186
-103.813 146.343 1150.820 194 193 187
-99.678 146.343 1150.820 194 193 187
-95.542 146.343 1150.820 194 193 187
-91.407 146.343 1150.820 194 193 187
-55.629 177.301 1394.263 51 51 49
-50.802 177.942 1399.308 53 53 51
-41.884 162.819 1280.383 49 49 47
-29.848 148.704 1169.382 41 41 39
-25.239 146.343 1150.820 66 66 64
-21.103 146.343 1150.820 150 150 148
272.516 146.343 1150.820 36 36 36
276.652 146.343 1150.820 35 35 35
280.787 146.343 1150.820 34 34 34
284.923 146.343 1150.820 34 34 34
289.058 146.343 1150.820 33 33 31
293.194 146.343 1150.820 33 33 31
297.329 146.343 1150.820 33 33 31
301.465 146.343 1150.820 34 34 32
305.600 146.343 1150.820 67 68 61
309.735 146.343 1150.820 199 200 193
313.871 146.343 1150.820 196 197 190
318.006 146.343 1150.820 198 199 192
322.142 146.343 1150.820 198 199 192
326.277 146.343 1150.820 199 198 192
330.413 146.343 1150.820 199 198 192
334.548 146.343 1150.820 199 198 192
338.684 146.343 1150.820 199 198 192
342.819 146.343 1150.820 198 197 191
346.955 146.343 1150.820 198 197 191
351.090 146.343 1150.820 198 197 191
355.226 146.343 1150.820 198 197 191
359.361 146.343 1150.820 198 197 191
363.497 146.343 1150.820 198 197 191
367.632 146.343 1150.820 198 197 191
371.768 146.343 1150.820 200 199 193
375.903 146.343 1150.820 199 197 194
380.039 146.343 1150.820 199 197 194
384.174 146.343 1150.820 201 199 196
388.310 146.343 1150.820 191 189 186
392.445 146.343 1150.820 205 198 201
396.581 146.343 1150.820 205 198 201
400.716 146.343 1150.820 215 208 211
860.149 148.554 1168.204 21 22 15
851.484 146.343 1150.820 19 20 13
-1034.298 150.479 1150.820 12 13 6
-1030.162 150.479 1150.820 12 13 6
-1026.027 150.479 1150.820 12 13 6
-1021.891 150.479 1150.820 12 13 6
-1017.756 150.479 1150.820 14 15 8
-1013.620 150.479 1150.820 15 15 15
-1009.485 150.479 1150.820 25 25 25
-1005.349 150.479 1150.820 32 32 32
-1001.214 150.479 1150.820 31 31 31
-997.078 150.479 1150.820 36 36 36
-992.943 150.479 1150.820 38 38 38
-988.807 150.479 1150.820 42 42 42
-984.672 150.479 1150.820 45 45 45
-980.537 150.479 1150.820 50 50 50
-976.401 150.479 1150.820 55 54 55
-972.266 150.479 1150.820 55 55 56
-968.130 150.479 1150.820 58 57 58
-963.995 150.479 1150.820 63 62 63
-959.859 150.479 1150.820 65 65 66
-955.724 150.479 1150.820 65 65 68
-951.588 150.479 1150.820 69 70 74
-947.453 150.479 1150.820 70 71 75
-943.317 150.479 1150.820 75 75 80
-939.182 150.479 1150.820 77 78 82
-935.046 150.479 1150.820 80 80 84
-930.911 150.479 1150.820 82 82 87
-926.775 150.479 1150.820 84 82 89
-922.640 150.479 1150.820 87 85 93
-918.504 150.479 1150.820 89 87 95
-914.369 150.479 1150.820 94 92 99
-910.233 150.479 1150.820 94 92 99
-906.098 150.479 1150.820 94 92 99
-901.962 150.479 1150.820 93 91 98
-897.827 150.479 1150.820 92 90 97
-893.691 150.479 1150.820 95 95 95
-889.556 150.479 1150.820 97 97 97
-885.420 150.479 1150.820 96 96 96
-881.285 150.479 1150.820 98 98 98
-877.149 150.479 1150.820 92 92 92
-873.014 150.479 1150.820 77 77 77
-868.878 150.479 1150.820 76 76 76
-864.743 150.479 1150.820 89 89 89
-848.201 150.479 1150.820 76 77 70
-839.930 150.479 1150.820 13 14 4
-835.794 150.479 1150.820 12 13 6
-831.659 150.479 1150.820 12 13 6
-827.523 150.479 1150.820 12 13 6
-973.471 214.544 1640.773 26 27 20
-952.751 211.257 1615.636 25 26 19
-940.396 209.796 1604.463 26 27 20
-942.452 211.552 1617.889 27 28 21
-904.065 208.069 1591.257 27 28 21
-908.315 210.378 1608.913 26 27 20
-900.037 209.796 1604.463 25 26 19
-882.071 206.934 1582.574 26 27 20
-639.166 152.906 1169.382 26 27 20
-637.184 154.463 1181.290 27 28 21
-872.959 213.037 1629.251 27 28 21
-608.343 150.479 1150.820 28 29 22
-604.207 150.479 1150.820 28 29 22
-600.072 150.479 1150.820 30 31 24
-601.908 151.987 1162.351 34 33 27
-591.801 150.479 1150.820 33 32 26
-587.665 150.479 1150.820 33 32 26
-583.530 150.479 1150.820 35 34 28
-584.029 151.683 1160.027 33 32 26
-575.259 150.479 1150.820 32 33 26
-792.933 215.153 1645.428 45 24 23
-783.686 214.241 1638.456 39 20 22
-782.217 215.458 1647.765 39 30 30
-780.732 216.689 1657.181 36 36 34
-772.569 216.072 1652.460 39 38 39
-762.288 214.848 1643.097 43 42 43
-762.867 216.689 1657.181 41 41 42
-766.770 219.512 1678.765 40 39 40
-754.189 217.622 1664.314 40 40 38
-747.136 217.310 1661.929 37 37 35
-741.164 217.310 1661.929 35 35 33
-733.091 216.689 1657.181 29 29 27
-738.745 220.149 1683.638 22 22 20
-724.285 217.622 1664.314 19 19 17
-711.162 215.458 1647.765 16 16 14
-714.544 220.149 1683.638 16 16 14
-463.601 150.479 1150.820 14 16 14
-459.465 150.479 1150.820 13 15 13
-455.330 150.479 1150.820 13 15 13
-451.194 150.479 1150.820 13 15 13
-447.059 150.479 1150.820 15 15 13
-339.536 150.479 1150.820 200 193 194
-335.401 150.479 1150.820 193 186 185
-596.500 349.499 2672.872 195 194 186
-582.866 347.100 2654.523 193 192 184
-574.642 347.896 2660.611 194 193 187
-557.410 343.173 2624.495 194 193 187
-547.979 343.173 2624.495 193 192 186
-548.475 349.499 2672.872 193 192 186
-537.631 348.696 2666.728 193 192 186
-526.837 347.896 2660.611 194 191 183
-520.860 350.306 2679.045 198 199 192
-512.416 351.117 2685.247 30 31 27
-501.605 350.306 2679.045 46 50 47
-486.362 346.307 2648.463 40 42 42
-203.136 175.559 1342.623 44 44 44
-171.856 152.139 1163.517 44 44 44
-165.846 150.479 1150.820 43 43 43
-161.710 150.479 1150.820 44 44 44
-112.084 150.479 1150.820 193 192 186
-107.949 150.479 1150.820 193 192 186
-103.813 150.479 1150.820 194 193 187
-99.678 150.479 1150.820 194 193 187
-95.542 150.479 1150.820 194 193 187
-91.407 150.479 1150.820 193 192 186
-79.506 220.790 1688.539 50 52 52
-73.332 220.469 1686.085 37 39 38
14.171 271.833 2078.901 191 190 182
17.527 220.149 1683.638 191 190 182
268.381 150.479 1150.820 35 35 35
272.516 150.479 1150.820 34 34 34
276.652 150.479 1150.820 34 34 34
280.787 150.479 1150.820 34 34 34
284.923 150.479 1150.820 34 34 34
289.058 150.479 1150.820 33 33 33
293.194 150.479 1150.820 35 35 35
297.329 150.479 1150.820 34 34 34
301.465 150.479 1150.820 37 37 37
305.600 150.479 1150.820 14 19 11
309.735 150.479 1150.820 195 198 191
313.871 150.479 1150.820 195 196 189
318.006 150.479 1150.820 198 197 191
322.142 150.479 1150.820 199 196 191
326.277 150.479 1150.820 198 197 191
330.413 150.479 1150.820 198 197 191
334.548 150.479 1150.820 199 198 192
338.684 150.479 1150.820 199 198 192
342.819 150.479 1150.820 198 197 191
346.955 150.479 1150.820 198 197 191
351.090 150.479 1150.820 198 197 191
355.226 150.479 1150.820 198 197 191
359.361 150.479 1150.820 200 194 194
363.497 150.479 1150.820 200 193 194
367.632 150.479 1150.820 201 194 195
371.768 150.479 1150.820 196 189 190
375.903 150.479 1150.820 208 206 207
380.039 150.479 1150.820 204 201 203
384.174 150.479 1150.820 183 181 182
388.310 150.479 1150.820 130 128 130
392.445 150.479 1150.820 57 56 56
396.581 150.479 1150.820 19 19 19
400.716 150.479 1150.820 22 21 22
872.449 154.936 1184.910 19 20 13
851.484 150.479 1150.820 19 20 13
-1034.298 154.614 1150.820 13 14 8
-1030.162 154.614 1150.820 14 14 10
-1026.027 154.614 1150.820 11 11 9
-1021.891 154.614 1150.820 14 14 15
-1017.756 154.614 1150.820 31 30 33
-1013.620 154.614 1150.820 56 55 57
-1009.485 154.614 1150.820 62 61 63
-1005.349 154.614 1150.820 61 60 62
-1001.214 154.614 1150.820 63 62 64
-997.078 154.614 1150.820 65 64 66
-992.943 154.614 1150.820 64 63 65
-988.807 154.614 1150.820 68 67 69
-984.672 154.614 1150.820 74 73 75
-980.537 154.614 1150.820 84 83 85
-976.401 154.614 1150.820 89 88 90
-972.266 154.614 1150.820 92 92 92
-968.130 154.614 1150.820 96 96 96
-963.995 154.614 1150.820 98 98 98
-959.859 154.614 1150.820 92 92 93
-955.724 154.614 1150.820 92 91 94
-951.588 154.614 1150.820 94 92 99
-947.453 154.614 1150.820 96 94 101
-943.317 154.614 1150.820 95 93 100
-939.182 154.614 1150.820 95 93 100
-935.046 154.614 1150.820 94 93 97
-930.911 154.614 1150.820 94 93 97
-926.775 154.614 1150.820 94 93 97
-922.640 154.614 1150.820 96 95 99
-918.504 154.614 1150.820 98 97 100
-914.369 154.614 1150.820 97 96 99
-910.233 154.614 1150.820 97 96 99
-906.098 154.614 1150.820 97 96 99
-901.962 154.614 1150.820 96 95 97
-897.827 154.614 1150.820 94 93 95
-893.691 154.614 1150.820 95 95 95
-889.556 154.614 1150.820 95 95 95
-885.420 154.614 1150.820 92 92 92
-881.285 154.614 1150.820 90 90 90
-877.149 154.614 1150.820 91 91 91
-873.014 154.614 1150.820 85 85 85
-868.878 154.614 1150.820 83 83 83
-864.743 154.614 1150.820 87 87 87
-860.607 154.614 1150.820 89 89 89
-1593.292 291.856 2172.334 49 50 40
-839.930 154.614 1150.820 17 18 8
-835.794 154.614 1150.820 12 13 6
-831.659 154.614 1150.820 12 13 6
-827.523 154.614 1150.820 12 13 6
-1548.237 295.173 2197.020 10 13 4
-976.232 221.066 1645.428 27 25 24
-960.780 218.892 1629.251 26 24 23
-637.291 154.614 1150.820 25 26 19
-633.156 154.614 1150.820 27 26 23
-690.689 169.773 1263.646 28 26 25
-630.761 157.108 1169.382 28 26 25
-608.343 154.614 1150.820 28 27 21
-604.207 154.614 1150.820 28 27 21
-600.072 154.614 1150.820 31 30 24
-595.936 154.614 1150.820 33 32 26
-591.801 154.614 1150.820 33 32 26
-587.665 154.614 1150.820 33 32 26
-583.530 154.614 1150.820 34 33 27
-579.394 154.614 1150.820 36 35 29
-575.259 154.614 1150.820 32 33 26
-631.242 170.889 1271.959 29 29 22
-811.508 224.569 1671.508 41 25 21
-794.060 221.380 1647.765 45 24 23
-785.906 220.752 1643.097 38 19 21
-778.898 220.440 1640.773 39 28 29
-777.400 221.694 1650.109 34 34 32
-768.192 220.752 1643.097 36 36 32
-754.804 218.585 1626.966 31 31 27
-759.611 221.694 1650.109 24 24 20
-763.455 224.569 1671.508 21 21 16
-752.031 222.963 1659.552 20 20 18
-743.938 222.327 1654.817 19 19 17
-737.992 222.327 1654.817 17 17 15
-732.045 222.327 1654.817 17 17 15
-732.367 224.246 1669.103 15 15 13
-718.103 221.694 1650.109 16 16 14
-696.325 216.761 1613.389 17 17 15
-686.707 215.562 1604.463 13 13 11
-701.312 222.010 1652.460 13 13 11
-463.601 154.614 1150.820 13 15 13
-459.465 154.614 1150.820 12 14 12
-455.330 154.614 1150.820 13 15 13
-451.194 154.614 1150.820 13 15 13
-447.059 154.614 1150.820 15 15 13
-442.923 154.614 1150.820 15 15 13
-438.788 154.614 1150.820 17 17 15
-434.652 154.614 1150.820 25 25 23
-339.536 154.614 1150.820 186 184 179
-335.401 154.614 1150.820 189 188 182
-599.261 360.767 2685.247 193 192 186
-588.250 359.933 2679.045 193 192 186
-579.962 360.767 2685.247 193 192 186
-565.081 357.457 2660.611 193 192 186
-555.520 357.457 2660.611 192 191 185
-551.014 360.767 2685.247 191 190 184
-541.364 360.767 2685.247 191 190 184
-530.487 359.933 2679.045 192 189 184
-522.065 360.767 2685.247 194 195 188
-512.416 360.767 2685.247 67 69 62
-501.605 359.933 2679.045 39 44 36
-487.475 356.639 2654.523 37 44 42
-174.117 154.614 1150.820 42 42 42
-169.981 154.614 1150.820 42 42 42
-165.846 154.614 1150.820 43 43 43
-116.220 154.614 1150.820 193 192 186
-112.084 154.614 1150.820 193 192 186
-107.949 154.614 1150.820 193 192 186
-103.813 154.614 1150.820 194 193 187
-99.678 154.614 1150.820 194 193 187
216.616 180.383 1342.623 194 193 187
224.964 179.345 1334.898 194 193 187
229.233 178.934 1331.833 194 193 187
234.019 178.934 1331.833 198 190 191
264.245 154.614 1150.820 35 35 35
268.381 154.614 1150.820 36 36 36
272.516 154.614 1150.820 34 34 34
276.652 154.614 1150.820 34 34 34
280.787 154.614 1150.820 34 34 34
284.923 154.614 1150.820 34 34 34
289.058 154.614 1150.820 33 33 33
293.194 154.614 1150.820 35 35 35
297.329 154.614 1150.820 35 35 35
301.465 154.614 1150.820 36 36 36
305.600 154.614 1150.820 26 30 23
309.735 154.614 1150.820 194 198 190
313.871 154.614 1150.820 197 198 191
318.006 154.614 1150.820 198 197 191
322.142 154.614 1150.820 199 196 191
326.277 154.614 1150.820 198 197 191
330.413 154.614 1150.820 198 197 191
334.548 154.614 1150.820 199 198 192
338.684 154.614 1150.820 199 198 192
342.819 154.614 1150.820 198 197 191
346.955 154.614 1150.820 198 197 191
353.899 155.851 1160.027 201 199 194
355.226 154.614 1150.820 200 197 195
359.361 154.614 1150.820 208 198 204
363.497 154.614 1150.820 207 197 202
367.632 154.614 1150.820 150 140 146
371.768 154.614 1150.820 64 55 60
375.903 154.614 1150.820 20 20 19
380.039 154.614 1150.820 20 20 18
384.174 154.614 1150.820 31 31 29
388.310 154.614 1150.820 28 28 26
392.445 154.614 1150.820 28 28 26
396.581 154.614 1150.820 28 28 26
400.716 154.614 1150.820 27 27 25
847.349 154.614 1150.820 21 22 15
851.484 154.614 1150.820 20 21 14
-1034.298 158.750 1150.820 13 13 12
-1030.162 158.750 1150.820 12 11 13
-1021.891 158.750 1150.820 33 31 38
-1017.756 158.750 1150.820 64 62 72
-1013.620 158.750 1150.820 80 79 81
-1009.485 158.750 1150.820 81 80 82
-1005.349 158.750 1150.820 84 83 85
-1001.214 158.750 1150.820 86 85 87
-997.078 158.750 1150.820 89 88 90
-992.943 158.750 1150.820 92 91 93
-988.807 158.750 1150.820 96 95 97
-984.672 158.750 1150.820 96 95 97
-980.537 158.750 1150.820 96 95 97
-976.401 158.750 1150.820 100 99 101
-972.266 158.750 1150.820 99 97 104
-968.130 158.750 1150.820 99 97 104
-963.995 158.750 1150.820 97 95 102
-959.859 158.750 1150.820 98 96 103
-955.724 158.750 1150.820 101 99 106
-951.588 158.750 1150.820 100 98 105
-947.453 158.750 1150.820 99 97 104
-943.317 158.750 1150.820 102 100 107
-939.182 158.750 1150.820 101 99 106
-935.046 158.750 1150.820 98 98 97
-930.911 158.750 1150.820 98 98 96
-926.775 158.750 1150.820 98 98 96
-922.640 158.750 1150.820 97 97 95
-918.504 158.750 1150.820 99 99 97
-914.369 158.750 1150.820 94 94 92
-910.233 158.750 1150.820 94 94 92
-906.098 158.750 1150.820 94 94 93
-901.962 158.750 1150.820 93 93 92
-897.827 158.750 1150.820 93 92 91
-893.691 158.750 1150.820 96 92 94
-889.556 158.750 1150.820 95 90 93
-885.420 158.750 1150.820 97 91 94
-881.285 158.750 1150.820 98 92 95
-877.149 158.750 1150.820 104 96 103
-873.014 158.750 1150.820 97 89 96
-868.878 158.750 1150.820 100 92 99
-864.743 158.750 1150.820 95 87 94
-1561.134 293.614 2128.489 41 43 29
-839.930 158.750 1150.820 17 19 2
-835.794 158.750 1150.820 12 13 6
-831.659 158.750 1150.820 12 13 6
-827.523 158.750 1150.820 12 13 6
-772.966 180.813 1310.765 26 24 23
-637.291 158.750 1150.820 25 26 19
-643.368 161.310 1169.382 27 26 23
-699.837 176.622 1280.383 28 26 25
-688.397 174.885 1267.789 28 26 25
-643.078 164.460 1192.216 28 26 25
-710.446 184.142 1334.898 27 26 20
-608.343 158.750 1150.820 27 26 20
-604.207 158.750 1150.820 27 26 20
-600.072 158.750 1150.820 30 29 23
-595.936 158.750 1150.820 30 29 23
-591.801 158.750 1150.820 32 31 25
-587.665 158.750 1150.820 33 32 26
-583.530 158.750 1150.820 34 33 27
-579.394 158.750 1150.820 32 31 25
-575.259 158.750 1150.820 32 33 26
-586.780 164.291 1190.992 30 27 22
-581.306 163.955 1188.552 34 28 24
-804.342 230.244 1669.103 43 24 22
-562.728 162.292 1176.498 36 19 19
-560.204 162.787 1180.088 35 27 26
-551.476 161.473 1170.562 33 32 29
-548.931 161.963 1174.116 35 36 32
-778.835 231.577 1678.765 23 23 20
-773.923 231.913 1681.198 12 13 10
-768.996 232.249 1683.638 19 19 17
-760.737 231.577 1678.765 15 15 13
-754.705 231.577 1678.765 17 17 15
-749.757 231.913 1681.198 26 26 24
-743.716 231.913 1681.198 31 31 29
-738.745 232.249 1683.638 17 17 14
-728.465 230.909 1673.920 12 13 6
-698.268 223.180 1617.889 13 14 7
-714.544 232.249 1683.638 13 14 7
-463.601 158.750 1150.820 15 15 13
-459.465 158.750 1150.820 15 15 13
-455.330 158.750 1150.820 15 15 13
-451.194 158.750 1150.820 17 17 15
-447.059 158.750 1150.820 17 20 17
-442.923 158.750 1150.820 19 22 18
-438.788 158.750 1150.820 31 35 27
-434.652 158.750 1150.820 47 51 40
-339.536 158.750 1150.820 152 151 145
-335.401 158.750 1150.820 194 193 187
-433.184 272.142 1972.834 193 192 186
-423.216 270.304 1959.504 193 192 186
-416.878 270.761 1962.820 193 192 186
-409.133 270.304 1959.504 192 191 185
-402.091 270.304 1959.504 191 190 184
-392.398 268.490 1946.353 191 190 184
-515.024 358.789 2600.957 195 192 187
-514.914 365.342 2648.463 191 192 185
-505.397 365.342 2648.463 170 172 165
-494.750 364.510 2642.430 35 40 32
-169.981 158.750 1150.820 41 41 41
-116.220 158.750 1150.820 191 190 184
-112.084 158.750 1150.820 193 192 186
-107.949 158.750 1150.820 192 191 185
-103.813 158.750 1150.820 192 190 186
189.806 158.750 1150.820 194 193 187
193.942 158.750 1150.820 194 193 187
198.077 158.750 1150.820 194 193 187
202.213 158.750 1150.820 200 190 191
206.348 158.750 1150.820 204 196 196
264.245 158.750 1150.820 37 37 35
268.381 158.750 1150.820 37 37 35
272.516 158.750 1150.820 38 38 38
276.652 158.750 1150.820 36 36 36
280.787 158.750 1150.820 36 36 36
284.923 158.750 1150.820 36 36 36
289.058 158.750 1150.820 35 35 33
293.194 158.750 1150.820 36 36 34
297.329 158.750 1150.820 38 38 36
301.465 158.750 1150.820 38 38 36
305.600 158.750 1150.820 38 40 34
309.735 158.750 1150.820 153 154 147
313.871 158.750 1150.820 195 193 188
318.006 158.750 1150.820 200 194 190
851.484 158.750 1150.820 20 21 14
1251.763 232.249 1683.638 20 21 14
984.811 181.841 1318.212 24 23 14
1005.545 184.780 1339.523 24 23 14
1273.611 232.925 1688.539 24 23 14
-1034.298 162.885 1150.820 12 10 12
-1030.162 162.885 1150.820 16 15 18
-1021.891 162.885 1150.820 60 58 64
-1017.756 162.885 1150.820 74 71 77
-1013.620 162.885 1150.820 70 68 68
-1009.485 162.885 1150.820 71 69 70
-1005.349 162.885 1150.820 78 75 79
-1001.214 162.885 1150.820 90 86 94
-997.078 162.885 1150.820 97 93 101
-992.943 162.885 1150.820 101 98 101
-988.807 162.885 1150.820 104 101 104
-984.672 162.885 1150.820 102 99 102
-980.537 162.885 1150.820 99 96 99
-976.401 162.885 1150.820 100 97 100
-972.266 162.885 1150.820 101 101 101
-968.130 162.885 1150.820 99 99 99
-963.995 162.885 1150.820 96 96 96
-959.859 162.885 1150.820 97 97 97
-955.724 162.885 1150.820 94 94 94
-951.588 162.885 1150.820 94 92 93
-947.453 162.885 1150.820 97 95 96
-943.317 162.885 1150.820 98 96 97
-939.182 162.885 1150.820 98 96 97
-935.046 162.885 1150.820 98 96 95
-930.911 162.885 1150.820 99 97 96
-926.775 162.885 1150.820 100 98 97
-922.640 162.885 1150.820 99 97 96
-918.504 162.885 1150.820 100 98 97
-914.369 162.885 1150.820 101 99 100
-910.233 162.885 1150.820 103 101 102
-906.098 162.885 1150.820 106 104 105
-901.962 162.885 1150.820 104 102 103
-897.827 162.885 1150.820 102 100 101
-893.691 162.885 1150.820 103 99 101
-889.556 162.885 1150.820 103 100 102
-885.420 162.885 1150.820 105 102 104
-881.285 162.885 1150.820 99 96 97
-877.149 162.885 1150.820 90 88 89
-873.014 162.885 1150.820 82 80 81
-868.878 162.885 1150.820 77 75 76
-864.743 162.885 1150.820 69 67 68
-1569.775 302.931 2140.270 14 15 7
-839.930 162.885 1150.820 13 14 6
-835.794 162.885 1150.820 12 13 6
-831.659 162.885 1150.820 12 13 6
-827.523 162.885 1150.820 12 13 6
-1346.495 304.617 2152.183 15 16 9
-679.541 168.226 1188.552 24 25 18
-665.183 168.918 1193.443 24 24 22
-637.291 162.885 1150.820 26 26 24
-633.156 162.885 1150.820 26 25 24
-654.085 170.497 1204.597 26 24 23
-640.445 168.054 1187.335 26 24 23
-633.585 167.368 1182.494 26 24 23
-628.055 167.028 1180.088 25 26 19
-608.343 162.885 1150.820 26 27 20
-611.487 164.848 1164.685 27 28 21
-616.587 167.368 1182.494 29 30 23
-604.938 165.346 1168.204 30 29 23
-591.801 162.885 1150.820 31 30 24
-587.665 162.885 1150.820 33 32 26
-583.530 162.885 1150.820 35 34 28
-579.394 162.885 1150.820 33 32 26
-575.259 162.885 1150.820 32 31 25
-591.667 168.744 1192.216 27 31 24
-583.783 167.710 1184.910 26 29 22
-578.934 167.539 1183.701 35 28 24
-576.445 168.054 1187.335 44 24 19
-572.178 168.054 1187.335 39 23 19
-561.021 166.015 1172.929 33 22 17
-559.635 166.858 1178.889 33 27 23
-551.476 165.679 1170.562 33 31 28
-547.822 165.847 1171.744 35 35 33
-542.515 165.512 1169.382 26 26 24
-775.046 238.299 1683.638 13 13 11
-767.881 237.954 1681.198 29 29 27
-759.638 237.266 1676.339 18 18 16
-753.614 237.266 1676.339 15 15 13
-748.672 237.610 1678.765 29 29 27
-743.716 237.954 1681.198 38 38 36
-739.819 238.646 1686.085 18 18 15
-729.518 237.266 1676.339 12 13 6
-715.583 238.646 1686.085 13 14 7
-709.524 238.646 1686.085 13 14 7
-468.716 164.682 1163.517 14 14 12
-463.604 164.353 1161.188 14 14 12
-455.330 162.885 1150.820 15 15 13
-451.194 162.885 1150.820 17 17 15
-447.059 162.885 1150.820 26 24 23
-442.923 162.885 1150.820 86 84 81
-339.536 162.885 1150.820 99 98 92
-335.401 162.885 1150.820 187 186 180
-331.265 162.885 1150.820 190 189 183
-291.762 212.404 1500.681 189 190 183
-178.252 162.885 1150.820 42 42 42
-174.117 162.885 1150.820 37 44 42
-169.981 162.885 1150.820 38 44 42
-116.220 162.885 1150.820 191 190 184
-112.084 162.885 1150.820 197 196 190
-107.949 162.885 1150.820 188 187 181
-103.813 162.885 1150.820 193 192 190
-99.678 162.885 1150.820 203 201 202
181.535 162.885 1150.820 194 193 187
185.671 162.885 1150.820 194 193 187
189.806 162.885 1150.820 194 193 187
193.942 162.885 1150.820 194 193 187
198.077 162.885 1150.820 194 193 187
202.213 162.885 1150.820 194 193 187
206.348 162.885 1150.820 192 191 185
210.484 162.885 1150.820 127 126 120
214.619 162.885 1150.820 51 50 44
218.755 162.885 1150.820 43 43 43
247.703 162.885 1150.820 38 38 38
251.839 162.885 1150.820 38 38 38
255.974 162.885 1150.820 36 36 34
260.110 162.885 1150.820 38 38 36
264.245 162.885 1150.820 37 37 35
268.381 162.885 1150.820 37 37 35
272.516 162.885 1150.820 38 38 38
276.652 162.885 1150.820 36 36 36
280.787 162.885 1150.820 37 37 37
284.923 162.885 1150.820 37 37 37
289.058 162.885 1150.820 36 36 34
293.194 162.885 1150.820 38 38 36
297.329 162.885 1150.820 38 38 36
301.465 162.885 1150.820 38 38 36
1251.763 238.299 1683.638 23 22 13
1254.173 237.610 1678.765 25 25 10
1003.228 189.157 1336.436 23 24 5
1277.329 239.691 1693.470 15 16 0
-1034.298 167.021 1150.820 14 11 14
-1030.162 167.021 1150.820 36 33 36
-1079.577 175.738 1210.884 60 57 60
-1021.891 167.021 1150.820 66 63 66
-1017.756 167.021 1150.820 62 59 62
-1013.620 167.021 1150.820 62 60 59
-1009.485 167.021 1150.820 63 61 62
-1005.349 167.021 1150.820 66 63 67
-1001.214 167.021 1150.820 82 78 86
-997.078 167.021 1150.820 97 93 101
-992.943 167.021 1150.820 98 95 98
-988.807 167.021 1150.820 102 99 102
-984.672 167.021 1150.820 99 96 99
-980.537 167.021 1150.820 96 93 96
-976.401 167.021 1150.820 96 93 96
-972.266 167.021 1150.820 97 97 97
-968.130 167.021 1150.820 97 97 97
-959.859 167.021 1150.820 99 99 99
-955.724 167.021 1150.820 98 97 97
-947.453 167.021 1150.820 104 102 103
-943.317 167.021 1150.820 103 101 102
-939.182 167.021 1150.820 107 105 106
-935.046 167.021 1150.820 105 103 102
-930.911 167.021 1150.820 105 103 102
-926.775 167.021 1150.820 104 102 101
-922.640 167.021 1150.820 107 105 104
-918.504 167.021 1150.820 107 105 104
-914.369 167.021 1150.820 105 103 104
-910.233 167.021 1150.820 100 98 99
-906.098 167.021 1150.820 100 98 99
-901.962 167.021 1150.820 95 93 94
-897.827 167.021 1150.820 90 88 89
-893.691 167.021 1150.820 92 93 93
-889.556 167.021 1150.820 85 87 87
-885.420 167.021 1150.820 80 82 82
-881.285 167.021 1150.820 69 70 70
-877.149 167.021 1150.820 59 61 57
-873.014 167.021 1150.820 22 24 18
-868.878 167.021 1150.820 9 11 6
-864.743 167.021 1150.820 8 10 6
-839.930 167.021 1150.820 12 13 6
-835.794 167.021 1150.820 11 12 5
-831.659 167.021 1150.820 10 11 4
-827.523 167.021 1150.820 12 13 6
-662.104 167.021 1150.820 27 28 21
-663.896 168.525 1161.188 26 27 20
-653.833 167.021 1150.820 26 27 20
-662.457 172.497 1188.552 24 24 22
-637.291 167.021 1150.820 26 26 24
-633.156 167.021 1150.820 27 26 24
-629.020 167.021 1150.820 26 24 23
-631.398 169.886 1170.562 26 24 23
-622.792 168.694 1162.351 26 24 23
-612.478 167.021 1150.820 24 25 18
-608.343 167.021 1150.820 27 28 21
-604.207 167.021 1150.820 25 26 19
-600.072 167.021 1150.820 28 29 22
-595.936 167.021 1150.820 30 29 23
-591.801 167.021 1150.820 31 30 24
-587.665 167.021 1150.820 33 32 26
-583.530 167.021 1150.820 35 34 28
-579.394 167.021 1150.820 35 34 28
-575.259 167.021 1150.820 32 31 25
-588.041 171.968 1184.910 27 31 24
-580.227 170.921 1177.692 26 29 22
-573.665 170.229 1172.929 35 28 24
-572.344 171.094 1178.889 44 24 19
-566.955 170.747 1176.498 40 24 19
-556.519 168.864 1163.517 32 21 16
-555.122 169.715 1169.382 33 27 23
-549.259 169.203 1165.856 33 31 28
-546.167 169.544 1168.204 36 36 34
-540.336 169.033 1164.685 30 30 28
-770.572 242.939 1673.920 13 12 10
-765.662 243.290 1676.339 27 26 24
-755.272 241.892 1666.705 20 20 18
-750.361 242.240 1669.103 15 15 13
-748.672 243.642 1678.765 21 20 19
-743.716 243.996 1681.198 22 21 19
-738.745 244.350 1683.638 15 15 12
-726.369 242.240 1669.103 12 12 5
-698.268 234.807 1617.889 11 11 4
-712.476 243.642 1678.765 15 14 8
-491.123 175.372 1208.361 11 17 14
-463.601 167.021 1150.820 9 16 12
-459.465 167.021 1150.820 12 19 15
-455.330 167.021 1150.820 8 15 11
-451.194 167.021 1150.820 9 16 12
-447.059 167.021 1150.820 19 20 13
-442.923 167.021 1150.820 80 81 74
-339.536 167.021 1150.820 101 100 94
-335.401 167.021 1150.820 196 195 189
-331.265 167.021 1150.820 191 190 184
-190.658 167.021 1150.820 42 42 42
-186.523 167.021 1150.820 42 42 42
-182.387 167.021 1150.820 42 42 42
-178.252 167.021 1150.820 42 42 42
-174.117 167.021 1150.820 39 46 44
-169.981 167.021 1150.820 39 46 44
-146.343 203.084 1399.308 196 194 190
-128.594 184.805 1273.355 199 197 194
177.400 167.021 1150.820 194 193 187
181.535 167.021 1150.820 194 193 187
185.671 167.021 1150.820 194 193 187
189.806 167.021 1150.820 194 193 187
193.942 167.021 1150.820 193 192 186
198.077 167.021 1150.820 193 192 186
202.213 167.021 1150.820 194 193 187
214.619 167.021 1150.820 44 43 37
218.755 167.021 1150.820 43 43 43
222.890 167.021 1150.820 41 41 41
227.026 167.021 1150.820 42 42 42
231.161 167.021 1150.820 42 42 42
235.297 167.021 1150.820 41 41 41
239.432 167.021 1150.820 40 40 40
243.568 167.021 1150.820 38 38 38
247.703 167.021 1150.820 38 38 38
251.839 167.021 1150.820 37 37 37
255.974 167.021 1150.820 36 36 36
260.110 167.021 1150.820 34 34 32
264.245 167.021 1150.820 38 39 33
268.381 167.021 1150.820 37 38 31
276.652 167.021 1150.820 37 37 35
280.787 167.021 1150.820 41 41 39
284.923 167.021 1150.820 38 38 36
289.058 167.021 1150.820 33 38 30
293.194 167.021 1150.820 35 40 32
297.329 167.021 1150.820 13 18 10
301.465 167.021 1150.820 23 28 20
850.836 223.285 1538.497 20 21 14
668.426 174.283 1200.856 20 21 11
-1034.298 171.156 1150.820 16 13 16
-1030.162 171.156 1150.820 28 25 28
-1026.027 171.156 1150.820 55 52 55
-1021.891 171.156 1150.820 55 52 55
-1017.756 171.156 1150.820 54 51 54
-1013.620 171.156 1150.820 78 76 75
-1009.485 171.156 1150.820 71 69 70
-1005.349 171.156 1150.820 66 63 67
-1001.214 171.156 1150.820 76 72 80
-997.078 171.156 1150.820 92 89 97
-992.943 171.156 1150.820 100 91 96
-988.807 171.156 1150.820 106 96 101
-984.672 171.156 1150.820 107 100 105
-980.537 171.156 1150.820 107 102 106
-976.401 171.156 1150.820 104 101 104
-972.266 171.156 1150.820 106 105 107
-968.130 171.156 1150.820 105 104 106
-963.995 171.156 1150.820 104 103 105
-959.859 171.156 1150.820 103 102 104
-955.724 171.156 1150.820 103 101 104
-951.588 171.156 1150.820 103 98 102
-947.453 171.156 1150.820 103 98 102
-943.317 171.156 1150.820 99 94 98
-939.182 171.156 1150.820 96 91 95
-935.046 171.156 1150.820 90 89 91
-930.911 171.156 1150.820 88 87 89
-926.775 171.156 1150.820 83 82 84
-922.640 171.156 1150.820 78 77 79
-918.504 171.156 1150.820 75 74 76
-914.369 171.156 1150.820 74 73 75
-910.233 171.156 1150.820 71 70 72
-906.098 171.156 1150.820 74 73 75
-901.962 171.156 1150.820 77 76 78
-897.827 171.156 1150.820 74 73 75
-893.691 171.156 1150.820 80 79 83
-889.556 171.156 1150.820 77 76 77
-885.420 171.156 1150.820 73 73 73
-881.285 171.156 1150.820 66 66 62
-877.149 171.156 1150.820 55 58 49
-873.014 171.156 1150.820 28 31 21
-868.878 171.156 1150.820 11 14 7
-864.743 171.156 1150.820 10 12 8
-839.930 171.156 1150.820 12 13 6
-835.794 171.156 1150.820 12 13 6
-831.659 171.156 1150.820 12 13 6
-827.523 171.156 1150.820 12 13 6
-674.510 171.156 1150.820 28 29 22
-662.104 171.156 1150.820 28 27 21
-657.969 171.156 1150.820 28 27 21
-653.833 171.156 1150.820 28 27 21
-637.291 171.156 1150.820 27 26 20
-633.156 171.156 1150.820 28 27 21
-702.162 191.058 1284.636 27 28 21
-626.969 172.871 1162.351 27 28 21
-616.614 171.156 1150.820 27 28 21
-612.478 171.156 1150.820 24 25 18
-608.343 171.156 1150.820 24 25 18
-604.207 171.156 1150.820 27 28 21
-600.072 171.156 1150.820 27 28 21
-595.936 171.156 1150.820 26 26 20
-591.801 171.156 1150.820 29 28 22
-587.665 171.156 1150.820 32 31 25
-583.530 171.156 1150.820 34 33 27
-579.394 171.156 1150.820 35 34 28
-575.259 171.156 1150.820 36 32 27
-637.533 191.058 1284.636 30 31 24
-572.096 172.698 1161.188 28 27 21
-562.852 171.156 1150.820 37 25 23
-572.344 175.331 1178.889 43 23 18
-559.578 172.698 1161.188 37 21 17
-550.446 171.156 1150.820 33 22 17
-546.310 171.156 1150.820 35 29 25
-542.175 171.156 1150.820 33 31 28
-543.431 172.871 1162.351 35 34 28
-533.904 171.156 1150.820 34 33 27
-741.676 239.619 1611.148 16 15 9
-766.770 249.675 1678.765 18 17 11
-748.817 245.763 1652.460 13 15 13
-741.822 245.413 1650.109 11 13 11
-747.590 249.314 1676.339 14 16 14
-742.639 249.675 1678.765 16 18 16
-736.607 249.675 1678.765 14 17 14
-718.103 245.413 1650.109 10 14 7
-693.432 238.955 1606.685 10 14 6
-678.264 235.691 1584.736 10 14 7
-683.779 239.619 1611.148 10 14 6
-675.176 238.624 1604.463 11 13 13
-459.465 171.156 1150.820 42 44 42
-455.330 171.156 1150.820 54 56 54
-451.194 171.156 1150.820 68 70 68
-447.059 171.156 1150.820 79 80 73
-442.923 171.156 1150.820 91 92 85
-438.788 171.156 1150.820 92 93 86
-434.652 171.156 1150.820 83 84 77
-339.536 171.156 1150.820 131 130 124
-335.401 171.156 1150.820 187 186 180
-331.265 171.156 1150.820 191 190 184
-190.658 171.156 1150.820 42 42 42
-186.523 171.156 1150.820 42 42 42
-182.387 171.156 1150.820 43 43 43
-178.252 171.156 1150.820 43 43 43
-174.117 171.156 1150.820 42 44 44
173.264 171.156 1150.820 193 192 186
177.400 171.156 1150.820 193 192 186
181.535 171.156 1150.820 193 192 186
185.671 171.156 1150.820 193 192 186
189.806 171.156 1150.820 193 192 186
193.942 171.156 1150.820 193 192 186
198.077 171.156 1150.820 193 192 186
202.213 171.156 1150.820 191 192 182
214.619 171.156 1150.820 30 30 28
218.755 171.156 1150.820 44 44 44
222.890 171.156 1150.820 41 41 41
227.026 171.156 1150.820 42 42 42
231.161 171.156 1150.820 42 42 42
235.297 171.156 1150.820 42 42 42
239.432 171.156 1150.820 40 40 40
243.568 171.156 1150.820 39 39 39
247.703 171.156 1150.820 40 40 40
251.839 171.156 1150.820 38 38 38
255.974 171.156 1150.820 39 39 39
260.110 171.156 1150.820 41 41 39
264.245 171.156 1150.820 40 41 35
268.381 171.156 1150.820 40 41 34
276.652 171.156 1150.820 30 31 23
280.787 171.156 1150.820 27 28 20
284.923 171.156 1150.820 31 32 24
289.058 171.156 1150.820 108 107 101
293.194 171.156 1150.820 171 171 165
297.329 171.156 1150.820 192 191 185
301.465 171.156 1150.820 211 210 204
859.150 234.092 1573.985 20 21 14
852.088 230.649 1550.838 20 20 16
837.507 225.229 1514.395 20 21 14
654.204 174.798 1175.306 20 21 11
882.972 234.410 1576.123 22 24 11
-1034.298 175.292 1150.820 10 8 15
-1030.162 175.292 1150.820 13 11 18
-1026.027 175.292 1150.820 36 34 41
-1021.891 175.292 1150.820 49 47 54
-1017.756 175.292 1150.820 51 49 56
-1013.620 175.292 1150.820 80 80 78
-1009.485 175.292 1150.820 77 77 77
-1005.349 175.292 1150.820 64 63 66
-1001.214 175.292 1150.820 72 70 77
-997.078 175.292 1150.820 91 89 96
-992.943 175.292 1150.820 102 93 98
-988.807 175.292 1150.820 107 99 104
-984.672 175.292 1150.820 104 101 104
-980.537 175.292 1150.820 97 96 98
-976.401 175.292 1150.820 92 92 94
-972.266 175.292 1150.820 93 92 94
-968.130 175.292 1150.820 90 89 91
-963.995 175.292 1150.820 86 85 87
-959.859 175.292 1150.820 82 81 83
-955.724 175.292 1150.820 79 78 80
-951.588 175.292 1150.820 76 76 78
-947.453 175.292 1150.820 71 71 73
-943.317 175.292 1150.820 70 71 73
-939.182 175.292 1150.820 70 70 72
-935.046 175.292 1150.820 69 68 70
